ply
format ascii 1.0
comment PCL generated
element vertex 1350
property float x
property float y
property float z
element camera 0
property float view_px
property float view_py
property float view_pz
property float x_axisx
property float x_axisy
property float x_axisz
property float y_axisx
property float y_axisy
property float y_axisz
property float z_axisx
property float z_axisy
property float z_axisz
property float focal
property float scalex
property float scaley
property float centerx
property float centery
property int viewportx
property int viewporty
property float k1
property float k2
end_header
-0.070597015 -0.044328358 0.9522388
-0.06895522 -0.044328358 0.9522388
-0.067313433 -0.044328358 0.9522388
-0.065671645 -0.044328358 0.9522388
-0.06402985 -0.044328358 0.9522388
-0.06262172 -0.044494383 0.95580524
-0.060746267 -0.044328358 0.9522388
-0.059104476 -0.044328358 0.9522388
-0.057462685 -0.044328358 0.9522388
-0.055820897 -0.044328358 0.9522388
-0.054179106 -0.044328358 0.9522388
-0.052537315 -0.044328358 0.9522388
-0.050895523 -0.044328358 0.9522388
-0.049253732 -0.044328358 0.9522388
-0.047611941 -0.044328358 0.9522388
-0.045970149 -0.044328358 0.9522388
-0.044328358 -0.044328358 0.9522388
-0.042686567 -0.044328358 0.9522388
-0.041044775 -0.044328358 0.9522388
-0.039402984 -0.044328358 0.9522388
-0.037761193 -0.044328358 0.9522388
-0.036119401 -0.044328358 0.9522388
-0.03447761 -0.044328358 0.9522388
-0.032835823 -0.044328358 0.9522388
-0.031194029 -0.044328358 0.9522388
-0.029552238 -0.044328358 0.9522388
-0.027910449 -0.044328358 0.9522388
-0.026268657 -0.044328358 0.9522388
-0.024626866 -0.044328358 0.9522388
-0.023071161 -0.044494383 0.95580524
-0.021423221 -0.044494383 0.95580524
-0.019775281 -0.044494383 0.95580524
-0.018127341 -0.044494383 0.95580524
-0.016417911 -0.044328358 0.9522388
-0.014776119 -0.044328358 0.9522388
-0.013134329 -0.044328358 0.9522388
-0.011492537 -0.044328358 0.9522388
-0.0098876404 -0.044494383 0.95580524
-0.0082397005 -0.044494383 0.95580524
-0.0065917601 -0.044494383 0.95580524
-0.0049438202 -0.044494383 0.95580524
-0.00329588 -0.044494383 0.95580524
-0.0016417911 -0.044328358 0.9522388
0.0016417911 -0.044328358 0.9522388
0.0032835822 -0.044328358 0.9522388
0.004925373 -0.044328358 0.9522388
0.0065671643 -0.044328358 0.9522388
0.0082089556 -0.044328358 0.9522388
0.009850746 -0.044328358 0.9522388
0.011492537 -0.044328358 0.9522388
0.013085502 -0.04416357 0.94869888
0.01472119 -0.04416357 0.94869888
0.016356878 -0.04416357 0.94869888
0.017992565 -0.04416357 0.94869888
0.019628253 -0.04416357 0.94869888
0.02126394 -0.04416357 0.94869888
0.022899628 -0.04416357 0.94869888
0.024535315 -0.04416357 0.94869888
0.026171004 -0.04416357 0.94869888
0.027806692 -0.04416357 0.94869888
0.029442379 -0.04416357 0.94869888
0.031078067 -0.04416357 0.94869888
0.032713756 -0.04416357 0.94869888
0.034349442 -0.04416357 0.94869888
0.035985131 -0.04416357 0.94869888
0.037620816 -0.04416357 0.94869888
0.039256506 -0.04416357 0.94869888
0.040892195 -0.04416357 0.94869888
0.042527881 -0.04416357 0.94869888
0.04416357 -0.04416357 0.94869888
0.045799255 -0.04416357 0.94869888
0.047434945 -0.04416357 0.94869888
0.04907063 -0.04416357 0.94869888
0.05070632 -0.04416357 0.94869888
0.052342009 -0.04416357 0.94869888
0.053777777 -0.044 0.94518518
0.055613384 -0.04416357 0.94869888
0.057249069 -0.04416357 0.94869888
0.058666665 -0.044 0.94518518
0.060296297 -0.044 0.94518518
0.061925925 -0.044 0.94518518
0.063321032 -0.043837637 0.94169742
0.064705886 -0.043676469 0.93823528
0.066323526 -0.043676469 0.93823528
0.067941174 -0.043676469 0.93823528
0.069051094 -0.043357663 0.93138689
0.070656933 -0.043357663 0.93138689
0.07173913 -0.043043479 0.92463768
0.07333333 -0.043043479 0.92463768
0.074927539 -0.043043479 0.92463768
0.076521739 -0.043043479 0.92463768
0.077833936 -0.042888086 0.92129964
0.079422385 -0.042888086 0.92129964
0.081010833 -0.042888086 0.92129964
0.082302161 -0.042733815 0.91798562
0.083584227 -0.042580646 0.91469532
0.085161291 -0.042580646 0.91469532
0.086738348 -0.042580646 0.91469532
0.088315412 -0.042580646 0.91469532
0.089252666 -0.042277578 0.90818506
0.090818502 -0.042277578 0.90818506
0.092056736 -0.042127661 0.90496457
0.09295775 -0.041830987 0.89859158
0.093846157 -0.041538462 0.8923077
0.095384613 -0.041538462 0.8923077
0.096585363 -0.041393727 0.8891986
0.098118469 -0.041393727 0.8891986
0.099651568 -0.041393727 0.8891986
0.10083333 -0.041250002 0.88611114
0.10271777 -0.041393727 0.8891986
0.10425087 -0.041393727 0.8891986
0.10578397 -0.041393727 0.8891986
0.10731708 -0.041393727 0.8891986
0.10809688 -0.041107267 0.88304496
0.10961938 -0.041107267 0.88304496
0.11114187 -0.041107267 0.88304496
0.11266436 -0.041107267 0.88304496
0.11418685 -0.041107267 0.88304496
0.11570934 -0.041107267 0.88304496
0.11682758 -0.040965516 0.88
0.11834483 -0.040965516 0.88
0.11986207 -0.040965516 0.88
0.12137931 -0.040965516 0.88
0.12289655 -0.040965516 0.88
0.1244138 -0.040965516 0.88
0.12593104 -0.040965516 0.88
0.12744828 -0.040965516 0.88
0.12896551 -0.040965516 0.88
0.13003436 -0.040824741 0.87697595
0.13154639 -0.040824741 0.87697595
0.13305841 -0.040824741 0.87697595
0.13457045 -0.040824741 0.87697595
0.13608247 -0.040824741 0.87697595
0.13806896 -0.040965516 0.88
0.13958621 -0.040965516 0.88
0.14061856 -0.040824741 0.87697595
0.14213058 -0.040824741 0.87697595
0.1436426 -0.040824741 0.87697595
0.14565517 -0.040965516 0.88
0.14717242 -0.040965516 0.88
0.14868966 -0.040965516 0.88
0.15020689 -0.040965516 0.88
0.15172414 -0.040965516 0.88
0.15324138 -0.040965516 0.88
0.15529412 -0.041107267 0.88304496
0.1568166 -0.041107267 0.88304496
0.1583391 -0.041107267 0.88304496
0.16041666 -0.041250002 0.88611114
0.16194445 -0.041250002 0.88611114
0.16347222 -0.041250002 0.88611114
0.16500001 -0.041250002 0.88611114
0.16652778 -0.041250002 0.88611114
0.16805555 -0.041250002 0.88611114
0.17017421 -0.041393727 0.8891986
0.17170732 -0.041393727 0.8891986
0.17445613 -0.04168421 0.89543861
0.176 -0.04168421 0.89543861
0.17754386 -0.04168421 0.89543861
0.17908771 -0.04168421 0.89543861
0.18255319 -0.042127661 0.90496457
0.18411347 -0.042127661 0.90496457
0.18567376 -0.042127661 0.90496457
0.18723404 -0.042127661 0.90496457
-0.19485714 -0.040857144 0.91142857
-0.19328572 -0.040857144 0.91142857
-0.19171429 -0.040857144 0.91142857
-0.19014286 -0.040857144 0.91142857
-0.18790035 -0.040711746 0.90818506
-0.18633452 -0.040711746 0.90818506
-0.1834629 -0.040424027 0.90176678
-0.18190813 -0.040424027 0.90176678
-0.18035336 -0.040424027 0.90176678
-0.17879859 -0.040424027 0.90176678
-0.17724381 -0.040424027 0.90176678
-0.17507042 -0.040281691 0.89859158
-0.17291228 -0.040140349 0.89543861
-0.17136842 -0.040140349 0.89543861
-0.16982456 -0.040140349 0.89543861
-0.16828071 -0.040140349 0.89543861
-0.16615385 -0.039999999 0.8923077
-0.16461538 -0.039999999 0.8923077
-0.16307692 -0.039999999 0.8923077
-0.16153847 -0.039999999 0.8923077
-0.16 -0.039999999 0.8923077
-0.15846154 -0.039999999 0.8923077
-0.1563763 -0.039860629 0.8891986
-0.15484321 -0.039860629 0.8891986
-0.15384616 -0.039999999 0.8923077
-0.151777 -0.039860629 0.8891986
-0.15024391 -0.039860629 0.8891986
-0.1487108 -0.039860629 0.8891986
-0.1471777 -0.039860629 0.8891986
-0.14564461 -0.039860629 0.8891986
-0.1441115 -0.039860629 0.8891986
-0.14257839 -0.039860629 0.8891986
-0.1410453 -0.039860629 0.8891986
-0.1395122 -0.039860629 0.8891986
-0.13846155 -0.039999999 0.8923077
-0.13692307 -0.039999999 0.8923077
-0.13538462 -0.039999999 0.8923077
-0.13384615 -0.039999999 0.8923077
-0.13230769 -0.039999999 0.8923077
-0.13076924 -0.039999999 0.8923077
-0.12923077 -0.039999999 0.8923077
-0.12769231 -0.039999999 0.8923077
-0.1265965 -0.040140349 0.89543861
-0.12505263 -0.040140349 0.89543861
-0.12350877 -0.040140349 0.89543861
-0.12153846 -0.039999999 0.8923077
-0.12 -0.039999999 0.8923077
-0.11846154 -0.039999999 0.8923077
-0.11733333 -0.040140349 0.89543861
-0.11578947 -0.040140349 0.89543861
-0.11424562 -0.040140349 0.89543861
-0.11270175 -0.040140349 0.89543861
-0.11115789 -0.040140349 0.89543861
-0.10961404 -0.040140349 0.89543861
-0.10807017 -0.040140349 0.89543861
-0.10727915 -0.040424027 0.90176678
-0.10572438 -0.040424027 0.90176678
-0.10528571 -0.040857144 0.91142857
-0.10408602 -0.041003585 0.91469532
-0.1032491 -0.041299637 0.92129964
-0.10166065 -0.041299637 0.92129964
-0.10007221 -0.041299637 0.92129964
-0.098483756 -0.041299637 0.92129964
-0.096895307 -0.041299637 0.92129964
-0.09565217 -0.041449275 0.92463768
-0.09405797 -0.041449275 0.92463768
-0.092463769 -0.041449275 0.92463768
-0.090869568 -0.041449275 0.92463768
-0.089599997 -0.0416 0.92799997
-0.088 -0.0416 0.92799997
-0.086400002 -0.0416 0.92799997
-0.084799998 -0.0416 0.92799997
-0.083503649 -0.041751824 0.93138689
-0.08189781 -0.041751824 0.93138689
-0.080291972 -0.041751824 0.93138689
-0.079264708 -0.042058822 0.93823528
-0.07793358 -0.042214021 0.94169742
-0.076592594 -0.042370372 0.94518518
-0.074962966 -0.042370372 0.94518518
-0.07333333 -0.042370372 0.94518518
-0.072238803 -0.042686567 0.9522388
-0.070597015 -0.042686567 0.9522388
-0.06895522 -0.042686567 0.9522388
-0.067313433 -0.042686567 0.9522388
-0.065671645 -0.042686567 0.9522388
-0.06402985 -0.042686567 0.9522388
-0.062388059 -0.042686567 0.9522388
-0.060746267 -0.042686567 0.9522388
-0.059104476 -0.042686567 0.9522388
-0.057462685 -0.042686567 0.9522388
-0.055820897 -0.042686567 0.9522388
-0.054179106 -0.042686567 0.9522388
-0.052537315 -0.042686567 0.9522388
-0.050895523 -0.042686567 0.9522388
-0.049253732 -0.042686567 0.9522388
-0.047611941 -0.042686567 0.9522388
-0.045970149 -0.042686567 0.9522388
-0.044328358 -0.042686567 0.9522388
-0.042686567 -0.042686567 0.9522388
-0.041044775 -0.042686567 0.9522388
-0.039402984 -0.042686567 0.9522388
-0.037761193 -0.042686567 0.9522388
-0.036119401 -0.042686567 0.9522388
-0.03447761 -0.042686567 0.9522388
-0.032835823 -0.042686567 0.9522388
-0.031194029 -0.042686567 0.9522388
-0.029552238 -0.042686567 0.9522388
-0.027910449 -0.042686567 0.9522388
-0.026268657 -0.042686567 0.9522388
-0.024626866 -0.042686567 0.9522388
-0.023071161 -0.042846441 0.95580524
-0.021423221 -0.042846441 0.95580524
-0.019775281 -0.042846441 0.95580524
-0.018127341 -0.042846441 0.95580524
-0.016479401 -0.042846441 0.95580524
-0.014776119 -0.042686567 0.9522388
-0.0098876404 -0.042846441 0.95580524
-0.0082397005 -0.042846441 0.95580524
-0.0065917601 -0.042846441 0.95580524
-0.0049438202 -0.042846441 0.95580524
-0.00329588 -0.042846441 0.95580524
0.004925373 -0.042686567 0.9522388
0.0065671643 -0.042686567 0.9522388
0.0082089556 -0.042686567 0.9522388
0.009850746 -0.042686567 0.9522388
0.011449814 -0.042527881 0.94869888
0.013085502 -0.042527881 0.94869888
0.01472119 -0.042527881 0.94869888
0.016356878 -0.042527881 0.94869888
0.017992565 -0.042527881 0.94869888
0.019628253 -0.042527881 0.94869888
0.02126394 -0.042527881 0.94869888
0.022899628 -0.042527881 0.94869888
0.024535315 -0.042527881 0.94869888
0.026171004 -0.042527881 0.94869888
0.027806692 -0.042527881 0.94869888
0.029442379 -0.042527881 0.94869888
0.031078067 -0.042527881 0.94869888
0.032713756 -0.042527881 0.94869888
0.034222223 -0.042370372 0.94518518
0.035985131 -0.042527881 0.94869888
0.037620816 -0.042527881 0.94869888
0.039256506 -0.042527881 0.94869888
0.040892195 -0.042527881 0.94869888
0.042527881 -0.042527881 0.94869888
0.04416357 -0.042527881 0.94869888
0.045629628 -0.042370372 0.94518518
0.04725926 -0.042370372 0.94518518
0.048888888 -0.042370372 0.94518518
0.05070632 -0.042527881 0.94869888
0.052148148 -0.042370372 0.94518518
0.053777777 -0.042370372 0.94518518
0.055407409 -0.042370372 0.94518518
0.057249069 -0.042527881 0.94869888
0.058666665 -0.042370372 0.94518518
0.060296297 -0.042370372 0.94518518
0.061925925 -0.042370372 0.94518518
0.063321032 -0.042214021 0.94169742
0.064944647 -0.042214021 0.94169742
0.066323526 -0.042058822 0.93823528
0.06769231 -0.041904762 0.93479854
0.069051094 -0.041751824 0.93138689
0.070656933 -0.041751824 0.93138689
0.07173913 -0.041449275 0.92463768
0.073068589 -0.041299637 0.92129964
0.074927539 -0.041449275 0.92463768
0.076245487 -0.041299637 0.92129964
0.077833936 -0.041299637 0.92129964
0.079422385 -0.041299637 0.92129964
0.080719426 -0.04115108 0.91798562
0.082302161 -0.04115108 0.91798562
0.083884895 -0.04115108 0.91798562
0.085161291 -0.041003585 0.91469532
0.086738348 -0.041003585 0.91469532
0.088315412 -0.041003585 0.91469532
0.089252666 -0.040711746 0.90818506
0.090818502 -0.040711746 0.90818506
0.092384338 -0.040711746 0.90818506
0.092631578 -0.040140349 0.89543861
0.093846157 -0.039999999 0.8923077
0.095384613 -0.039999999 0.8923077
0.096249998 -0.039722223 0.88611114
0.098118469 -0.039860629 0.8891986
0.099305555 -0.039722223 0.88611114
0.10083333 -0.039722223 0.88611114
0.10236111 -0.039722223 0.88611114
0.10211604 -0.039044369 0.87098974
0.10361775 -0.039044369 0.87098974
0.10511945 -0.039044369 0.87098974
0.10809688 -0.039584775 0.88304496
0.10961938 -0.039584775 0.88304496
0.11114187 -0.039584775 0.88304496
0.11266436 -0.039584775 0.88304496
0.11418685 -0.039584775 0.88304496
0.11531034 -0.039448276 0.88
0.11682758 -0.039448276 0.88
0.11834483 -0.039448276 0.88
0.11986207 -0.039448276 0.88
0.1209622 -0.039312717 0.87697595
0.12247422 -0.039312717 0.87697595
0.12398625 -0.039312717 0.87697595
0.12549828 -0.039312717 0.87697595
0.12744828 -0.039448276 0.88
0.12852234 -0.039312717 0.87697595
0.13003436 -0.039312717 0.87697595
0.13154639 -0.039312717 0.87697595
0.13305841 -0.039312717 0.87697595
0.13457045 -0.039312717 0.87697595
0.13608247 -0.039312717 0.87697595
0.13759451 -0.039312717 0.87697595
0.13910653 -0.039312717 0.87697595
0.14061856 -0.039312717 0.87697595
0.14213058 -0.039312717 0.87697595
0.1436426 -0.039312717 0.87697595
0.14515464 -0.039312717 0.87697595
0.14666666 -0.039312717 0.87697595
0.1481787 -0.039312717 0.87697595
0.14969072 -0.039312717 0.87697595
0.15172414 -0.039448276 0.88
0.15324138 -0.039448276 0.88
0.15475862 -0.039448276 0.88
0.1568166 -0.039584775 0.88304496
0.1583391 -0.039584775 0.88304496
0.15986159 -0.039584775 0.88304496
0.16138408 -0.039584775 0.88304496
0.16347222 -0.039722223 0.88611114
0.16442907 -0.039584775 0.88304496
0.16652778 -0.039722223 0.88611114
0.16805555 -0.039722223 0.88611114
0.17017421 -0.039860629 0.8891986
0.17170732 -0.039860629 0.8891986
0.17324042 -0.039860629 0.8891986
0.176 -0.040140349 0.89543861
0.17754386 -0.040140349 0.89543861
0.17908771 -0.040140349 0.89543861
0.18255319 -0.040567376 0.90496457
0.18411347 -0.040567376 0.90496457
0.18567376 -0.040567376 0.90496457
0.18723404 -0.040567376 0.90496457
0.18879433 -0.040567376 0.90496457
-0.19485714 -0.039285716 0.91142857
-0.19328572 -0.039285716 0.91142857
-0.19171429 -0.039285716 0.91142857
-0.19014286 -0.039285716 0.91142857
-0.18857142 -0.039285716 0.91142857
-0.18501768 -0.038869258 0.90176678
-0.1834629 -0.038869258 0.90176678
-0.18190813 -0.038869258 0.90176678
-0.18035336 -0.038869258 0.90176678
-0.17879859 -0.038869258 0.90176678
-0.176 -0.038596492 0.89543861
-0.17445613 -0.038596492 0.89543861
-0.17291228 -0.038596492 0.89543861
-0.17136842 -0.038596492 0.89543861
-0.16923077 -0.03846154 0.8923077
-0.1676923 -0.03846154 0.8923077
-0.16615385 -0.03846154 0.8923077
-0.16461538 -0.03846154 0.8923077
-0.16250871 -0.038327526 0.8891986
-0.16097561 -0.038327526 0.8891986
-0.16 -0.03846154 0.8923077
-0.15790941 -0.038327526 0.8891986
-0.1563763 -0.038327526 0.8891986
-0.15484321 -0.038327526 0.8891986
-0.15331011 -0.038327526 0.8891986
-0.151777 -0.038327526 0.8891986
-0.15024391 -0.038327526 0.8891986
-0.1487108 -0.038327526 0.8891986
-0.1471777 -0.038327526 0.8891986
-0.14564461 -0.038327526 0.8891986
-0.1441115 -0.038327526 0.8891986
-0.14257839 -0.038327526 0.8891986
-0.1410453 -0.038327526 0.8891986
-0.1395122 -0.038327526 0.8891986
-0.13797909 -0.038327526 0.8891986
-0.136446 -0.038327526 0.8891986
-0.13491289 -0.038327526 0.8891986
-0.13384615 -0.03846154 0.8923077
-0.1318467 -0.038327526 0.8891986
-0.13076924 -0.03846154 0.8923077
-0.12878048 -0.038327526 0.8891986
-0.12769231 -0.03846154 0.8923077
-0.12615384 -0.03846154 0.8923077
-0.12505263 -0.038596492 0.89543861
-0.12350877 -0.038596492 0.89543861
-0.12153846 -0.03846154 0.8923077
-0.12 -0.03846154 0.8923077
-0.11846154 -0.03846154 0.8923077
-0.11692308 -0.03846154 0.8923077
-0.11578947 -0.038596492 0.89543861
-0.11424562 -0.038596492 0.89543861
-0.11270175 -0.038596492 0.89543861
-0.11115789 -0.038596492 0.89543861
-0.10961404 -0.038596492 0.89543861
-0.10807017 -0.038596492 0.89543861
-0.10727915 -0.038869258 0.90176678
-0.10572438 -0.038869258 0.90176678
-0.10491103 -0.039145909 0.90818506
-0.10334519 -0.039145909 0.90818506
-0.1028777 -0.039568346 0.91798562
-0.10166065 -0.039711192 0.92129964
-0.10007221 -0.039711192 0.92129964
-0.098483756 -0.039711192 0.92129964
-0.096895307 -0.039711192 0.92129964
-0.095306858 -0.039711192 0.92129964
-0.09371841 -0.039711192 0.92129964
-0.092463769 -0.039855074 0.92463768
-0.090869568 -0.039855074 0.92463768
-0.089599997 -0.039999999 0.92799997
-0.088 -0.039999999 0.92799997
-0.086400002 -0.039999999 0.92799997
-0.084799998 -0.039999999 0.92799997
-0.083809525 -0.040293042 0.93479854
-0.0821978 -0.040293042 0.93479854
-0.080586083 -0.040293042 0.93479854
-0.079264708 -0.040441178 0.93823528
-0.07793358 -0.040590405 0.94169742
-0.076592594 -0.04074074 0.94518518
-0.074962966 -0.04074074 0.94518518
-0.07333333 -0.04074074 0.94518518
-0.071970262 -0.040892195 0.94869888
-0.070597015 -0.041044775 0.9522388
-0.06895522 -0.041044775 0.9522388
-0.067313433 -0.041044775 0.9522388
-0.065671645 -0.041044775 0.9522388
-0.06402985 -0.041044775 0.9522388
-0.062388059 -0.041044775 0.9522388
-0.060746267 -0.041044775 0.9522388
-0.059104476 -0.041044775 0.9522388
-0.057462685 -0.041044775 0.9522388
-0.055820897 -0.041044775 0.9522388
-0.054179106 -0.041044775 0.9522388
-0.052537315 -0.041044775 0.9522388
-0.050895523 -0.041044775 0.9522388
-0.049253732 -0.041044775 0.9522388
-0.047434945 -0.040892195 0.94869888
-0.045970149 -0.041044775 0.9522388
-0.044328358 -0.041044775 0.9522388
-0.042686567 -0.041044775 0.9522388
-0.041044775 -0.041044775 0.9522388
-0.039402984 -0.041044775 0.9522388
-0.037620816 -0.040892195 0.94869888
-0.035985131 -0.040892195 0.94869888
-0.03447761 -0.041044775 0.9522388
-0.032835823 -0.041044775 0.9522388
-0.031194029 -0.041044775 0.9522388
-0.029552238 -0.041044775 0.9522388
-0.027910449 -0.041044775 0.9522388
-0.026268657 -0.041044775 0.9522388
-0.024626866 -0.041044775 0.9522388
-0.023071161 -0.041198503 0.95580524
-0.021423221 -0.041198503 0.95580524
-0.019775281 -0.041198503 0.95580524
-0.018127341 -0.041198503 0.95580524
-0.016479401 -0.041198503 0.95580524
-0.0065917601 -0.041198503 0.95580524
0.0082089556 -0.041044775 0.9522388
0.0098141264 -0.040892195 0.94869888
0.011449814 -0.040892195 0.94869888
0.013085502 -0.040892195 0.94869888
0.01472119 -0.040892195 0.94869888
0.016356878 -0.040892195 0.94869888
0.017992565 -0.040892195 0.94869888
0.019628253 -0.040892195 0.94869888
0.02126394 -0.040892195 0.94869888
0.022899628 -0.040892195 0.94869888
0.024535315 -0.040892195 0.94869888
0.026074074 -0.04074074 0.94518518
0.027806692 -0.040892195 0.94869888
0.029442379 -0.040892195 0.94869888
0.031078067 -0.040892195 0.94869888
0.032592591 -0.04074074 0.94518518
0.034222223 -0.04074074 0.94518518
0.035851851 -0.04074074 0.94518518
0.037620816 -0.040892195 0.94869888
0.039111111 -0.04074074 0.94518518
0.04074074 -0.04074074 0.94518518
0.042370372 -0.04074074 0.94518518
0.044 -0.04074074 0.94518518
0.045629628 -0.04074074 0.94518518
0.04725926 -0.04074074 0.94518518
0.048888888 -0.04074074 0.94518518
0.05051852 -0.04074074 0.94518518
0.052148148 -0.04074074 0.94518518
0.053777777 -0.04074074 0.94518518
0.055407409 -0.04074074 0.94518518
0.057037037 -0.04074074 0.94518518
0.058666665 -0.04074074 0.94518518
0.060296297 -0.04074074 0.94518518
0.061925925 -0.04074074 0.94518518
0.063321032 -0.040590405 0.94169742
0.064944647 -0.040590405 0.94169742
0.066080585 -0.040293042 0.93479854
0.06769231 -0.040293042 0.93479854
0.069051094 -0.040145986 0.93138689
0.070144929 -0.039855074 0.92463768
0.07173913 -0.039855074 0.92463768
0.073068589 -0.039711192 0.92129964
0.074657038 -0.039711192 0.92129964
0.076245487 -0.039711192 0.92129964
0.077833936 -0.039711192 0.92129964
0.079422385 -0.039711192 0.92129964
0.080719426 -0.039568346 0.91798562
0.082302161 -0.039568346 0.91798562
0.083584227 -0.039426524 0.91469532
0.085161291 -0.039426524 0.91469532
0.086738348 -0.039426524 0.91469532
0.088315412 -0.039426524 0.91469532
0.089252666 -0.039145909 0.90818506
0.090818502 -0.039145909 0.90818506
0.092384338 -0.039145909 0.90818506
0.092631578 -0.038596492 0.89543861
0.094175436 -0.038596492 0.89543861
0.094722219 -0.038194444 0.88611114
0.096249998 -0.038194444 0.88611114
0.097777776 -0.038194444 0.88611114
0.099305555 -0.038194444 0.88611114
0.10083333 -0.038194444 0.88611114
0.10236111 -0.038194444 0.88611114
0.10211604 -0.037542664 0.87098974
0.10361775 -0.037542664 0.87098974
0.10511945 -0.037542664 0.87098974
0.10809688 -0.038062282 0.88304496
0.10961938 -0.038062282 0.88304496
0.11114187 -0.038062282 0.88304496
0.11266436 -0.038062282 0.88304496
0.11418685 -0.038062282 0.88304496
0.11531034 -0.037931036 0.88
0.11682758 -0.037931036 0.88
0.11834483 -0.037931036 0.88
0.11986207 -0.037931036 0.88
0.1209622 -0.037800688 0.87697595
0.12247422 -0.037800688 0.87697595
0.12398625 -0.037800688 0.87697595
0.12549828 -0.037800688 0.87697595
0.12701032 -0.037800688 0.87697595
0.12852234 -0.037800688 0.87697595
0.13003436 -0.037800688 0.87697595
0.13154639 -0.037800688 0.87697595
0.13305841 -0.037800688 0.87697595
0.13457045 -0.037800688 0.87697595
0.13608247 -0.037800688 0.87697595
0.13759451 -0.037800688 0.87697595
0.13910653 -0.037800688 0.87697595
0.14061856 -0.037800688 0.87697595
0.14213058 -0.037800688 0.87697595
0.1436426 -0.037800688 0.87697595
0.14515464 -0.037800688 0.87697595
0.14616439 -0.037671234 0.87397259
0.1481787 -0.037800688 0.87697595
0.14969072 -0.037800688 0.87697595
0.15120275 -0.037800688 0.87697595
0.15271477 -0.037800688 0.87697595
0.15475862 -0.037931036 0.88
0.15627587 -0.037931036 0.88
0.1577931 -0.037931036 0.88
0.15986159 -0.038062282 0.88304496
0.16138408 -0.038062282 0.88304496
0.16290657 -0.038062282 0.88304496
0.16442907 -0.038062282 0.88304496
0.16652778 -0.038194444 0.88611114
0.16805555 -0.038194444 0.88611114
0.16958334 -0.038194444 0.88611114
0.17170732 -0.038327526 0.8891986
0.17384616 -0.03846154 0.8923077
0.17538461 -0.03846154 0.8923077
0.17692308 -0.03846154 0.8923077
0.17846154 -0.03846154 0.8923077
0.18255319 -0.039007094 0.90496457
0.18411347 -0.039007094 0.90496457
0.18567376 -0.039007094 0.90496457
0.18723404 -0.039007094 0.90496457
-0.19642857 -0.037714284 0.91142857
-0.19485714 -0.037714284 0.91142857
-0.19328572 -0.037714284 0.91142857
-0.19171429 -0.037714284 0.91142857
-0.19014286 -0.037714284 0.91142857
-0.18857142 -0.037714284 0.91142857
-0.18501768 -0.037314489 0.90176678
-0.1834629 -0.037314489 0.90176678
-0.1812676 -0.037183098 0.89859158
-0.17971832 -0.037183098 0.89859158
-0.17816901 -0.037183098 0.89859158
-0.176 -0.037052631 0.89543861
-0.17445613 -0.037052631 0.89543861
-0.17230769 -0.036923077 0.8923077
-0.17076923 -0.036923077 0.8923077
-0.16923077 -0.036923077 0.8923077
-0.1676923 -0.036923077 0.8923077
-0.16557491 -0.036794424 0.8891986
-0.16404182 -0.036794424 0.8891986
-0.16250871 -0.036794424 0.8891986
-0.16097561 -0.036794424 0.8891986
-0.15944251 -0.036794424 0.8891986
-0.15790941 -0.036794424 0.8891986
-0.1563763 -0.036794424 0.8891986
-0.15484321 -0.036794424 0.8891986
-0.15331011 -0.036794424 0.8891986
-0.151777 -0.036794424 0.8891986
-0.14972222 -0.036666665 0.88611114
-0.14819445 -0.036666665 0.88611114
-0.14666666 -0.036666665 0.88611114
-0.14513889 -0.036666665 0.88611114
-0.1441115 -0.036794424 0.8891986
-0.14257839 -0.036794424 0.8891986
-0.1410453 -0.036794424 0.8891986
-0.1395122 -0.036794424 0.8891986
-0.13797909 -0.036794424 0.8891986
-0.136446 -0.036794424 0.8891986
-0.13491289 -0.036794424 0.8891986
-0.13337979 -0.036794424 0.8891986
-0.1318467 -0.036794424 0.8891986
-0.13031359 -0.036794424 0.8891986
-0.12878048 -0.036794424 0.8891986
-0.12724739 -0.036794424 0.8891986
-0.12615384 -0.036923077 0.8923077
-0.12461539 -0.036923077 0.8923077
-0.12307692 -0.036923077 0.8923077
-0.12153846 -0.036923077 0.8923077
-0.12 -0.036923077 0.8923077
-0.11846154 -0.036923077 0.8923077
-0.11692308 -0.036923077 0.8923077
-0.11538462 -0.036923077 0.8923077
-0.11424562 -0.037052631 0.89543861
-0.11270175 -0.037052631 0.89543861
-0.11115789 -0.037052631 0.89543861
-0.10961404 -0.037052631 0.89543861
-0.1084507 -0.037183098 0.89859158
-0.10690141 -0.037183098 0.89859158
-0.10572438 -0.037314489 0.90176678
-0.10491103 -0.037580073 0.90818506
-0.10334519 -0.037580073 0.90818506
-0.1028777 -0.037985612 0.91798562
-0.10129496 -0.037985612 0.91798562
-0.09971223 -0.037985612 0.91798562
-0.098483756 -0.038122743 0.92129964
-0.096895307 -0.038122743 0.92129964
-0.095306858 -0.038122743 0.92129964
-0.09371841 -0.038122743 0.92129964
-0.092463769 -0.03826087 0.92463768
-0.090869568 -0.03826087 0.92463768
-0.089599997 -0.038400002 0.92799997
-0.088 -0.038400002 0.92799997
-0.086400002 -0.038400002 0.92799997
-0.084799998 -0.038400002 0.92799997
-0.083809525 -0.038681317 0.93479854
-0.0821978 -0.038681317 0.93479854
-0.080586083 -0.038681317 0.93479854
-0.079264708 -0.03882353 0.93823528
-0.07793358 -0.03896679 0.94169742
-0.076309964 -0.03896679 0.94169742
-0.074962966 -0.039111111 0.94518518
-0.073605947 -0.039256506 0.94869888
-0.071970262 -0.039256506 0.94869888
-0.070334576 -0.039256506 0.94869888
-0.068698883 -0.039256506 0.94869888
-0.067063197 -0.039256506 0.94869888
-0.065671645 -0.039402984 0.9522388
-0.063791819 -0.039256506 0.94869888
-0.062388059 -0.039402984 0.9522388
-0.060746267 -0.039402984 0.9522388
-0.059104476 -0.039402984 0.9522388
-0.057462685 -0.039402984 0.9522388
-0.055613384 -0.039256506 0.94869888
-0.053977694 -0.039256506 0.94869888
-0.052537315 -0.039402984 0.9522388
-0.05070632 -0.039256506 0.94869888
-0.04907063 -0.039256506 0.94869888
-0.047434945 -0.039256506 0.94869888
-0.045799255 -0.039256506 0.94869888
-0.04416357 -0.039256506 0.94869888
-0.042527881 -0.039256506 0.94869888
-0.040892195 -0.039256506 0.94869888
-0.039256506 -0.039256506 0.94869888
-0.037620816 -0.039256506 0.94869888
-0.035985131 -0.039256506 0.94869888
-0.034349442 -0.039256506 0.94869888
-0.032713756 -0.039256506 0.94869888
-0.031078067 -0.039256506 0.94869888
-0.029442379 -0.039256506 0.94869888
-0.027910449 -0.039402984 0.9522388
-0.023071161 -0.039550561 0.95580524
-0.021423221 -0.039550561 0.95580524
-0.019775281 -0.039550561 0.95580524
-0.018127341 -0.039550561 0.95580524
-0.016479401 -0.039550561 0.95580524
0.013085502 -0.039256506 0.94869888
0.01472119 -0.039256506 0.94869888
0.016356878 -0.039256506 0.94869888
0.017992565 -0.039256506 0.94869888
0.019628253 -0.039256506 0.94869888
0.021185186 -0.039111111 0.94518518
0.022814814 -0.039111111 0.94518518
0.024444444 -0.039111111 0.94518518
0.026074074 -0.039111111 0.94518518
0.027703704 -0.039111111 0.94518518
0.029333333 -0.039111111 0.94518518
0.030962963 -0.039111111 0.94518518
0.032592591 -0.039111111 0.94518518
0.034222223 -0.039111111 0.94518518
0.035851851 -0.039111111 0.94518518
0.037481483 -0.039111111 0.94518518
0.039111111 -0.039111111 0.94518518
0.04074074 -0.039111111 0.94518518
0.042370372 -0.039111111 0.94518518
0.044 -0.039111111 0.94518518
0.045629628 -0.039111111 0.94518518
0.04725926 -0.039111111 0.94518518
0.048888888 -0.039111111 0.94518518
0.050332103 -0.03896679 0.94169742
0.052148148 -0.039111111 0.94518518
0.053777777 -0.039111111 0.94518518
0.055407409 -0.039111111 0.94518518
0.056826569 -0.03896679 0.94169742
0.058666665 -0.039111111 0.94518518
0.0600738 -0.03896679 0.94169742
0.061925925 -0.039111111 0.94518518
0.063321032 -0.03896679 0.94169742
0.064944647 -0.03896679 0.94169742
0.066568263 -0.03896679 0.94169742
0.06769231 -0.038681317 0.93479854
0.068550728 -0.03826087 0.92463768
0.070144929 -0.03826087 0.92463768
0.07173913 -0.03826087 0.92463768
0.073068589 -0.038122743 0.92129964
0.074657038 -0.038122743 0.92129964
0.076245487 -0.038122743 0.92129964
0.077553958 -0.037985612 0.91798562
0.079136692 -0.037985612 0.91798562
0.080430105 -0.037849464 0.91469532
0.08200717 -0.037849464 0.91469532
0.083584227 -0.037849464 0.91469532
0.084857143 -0.037714284 0.91142857
0.086738348 -0.037849464 0.91469532
0.088 -0.037714284 0.91142857
0.089252666 -0.037580073 0.90818506
0.090818502 -0.037580073 0.90818506
0.092384338 -0.037580073 0.90818506
0.092631578 -0.037052631 0.89543861
0.093519166 -0.036794424 0.8891986
0.094722219 -0.036666665 0.88611114
0.096249998 -0.036666665 0.88611114
0.097777776 -0.036666665 0.88611114
0.099305555 -0.036666665 0.88611114
0.10083333 -0.036666665 0.88611114
0.10200692 -0.036539793 0.88304496
0.10211604 -0.036040954 0.87098974
0.10361775 -0.036040954 0.87098974
0.10547945 -0.036164384 0.87397259
0.10809688 -0.036539793 0.88304496
0.10961938 -0.036539793 0.88304496
0.11114187 -0.036539793 0.88304496
0.11266436 -0.036539793 0.88304496
0.1137931 -0.036413793 0.88
0.11531034 -0.036413793 0.88
0.11682758 -0.036413793 0.88
0.11834483 -0.036413793 0.88
0.11945017 -0.03628866 0.87697595
0.1209622 -0.03628866 0.87697595
0.12247422 -0.03628866 0.87697595
0.12398625 -0.03628866 0.87697595
0.12549828 -0.03628866 0.87697595
0.12657534 -0.036164384 0.87397259
0.12808219 -0.036164384 0.87397259
0.12958904 -0.036164384 0.87397259
0.13109589 -0.036164384 0.87397259
0.13260274 -0.036164384 0.87397259
0.13457045 -0.03628866 0.87697595
0.13608247 -0.03628866 0.87697595
0.13712329 -0.036164384 0.87397259
0.13910653 -0.03628866 0.87697595
0.14013699 -0.036164384 0.87397259
0.14164384 -0.036164384 0.87397259
0.1436426 -0.03628866 0.87697595
0.14465754 -0.036164384 0.87397259
0.14616439 -0.036164384 0.87397259
0.14767124 -0.036164384 0.87397259
0.14969072 -0.03628866 0.87697595
0.15120275 -0.03628866 0.87697595
0.15271477 -0.03628866 0.87697595
0.15422681 -0.03628866 0.87697595
0.15627587 -0.036413793 0.88
0.1577931 -0.036413793 0.88
0.15931034 -0.036413793 0.88
0.16138408 -0.036539793 0.88304496
0.16290657 -0.036539793 0.88304496
0.16442907 -0.036539793 0.88304496
0.16652778 -0.036666665 0.88611114
0.16805555 -0.036666665 0.88611114
0.16958334 -0.036666665 0.88611114
0.17170732 -0.036794424 0.8891986
0.17384616 -0.036923077 0.8923077
0.17538461 -0.036923077 0.8923077
0.17692308 -0.036923077 0.8923077
0.17846154 -0.036923077 0.8923077
0.18190813 -0.037314489 0.90176678
0.1834629 -0.037314489 0.90176678
0.18567376 -0.037446808 0.90496457
0.18723404 -0.037446808 0.90496457
-0.19642857 -0.036142856 0.91142857
-0.19485714 -0.036142856 0.91142857
-0.19328572 -0.036142856 0.91142857
-0.19171429 -0.036142856 0.91142857
-0.19014286 -0.036142856 0.91142857
-0.18723404 -0.035886526 0.90496457
-0.18501768 -0.035759717 0.90176678
-0.1834629 -0.035759717 0.90176678
-0.18190813 -0.035759717 0.90176678
-0.17971832 -0.035633802 0.89859158
-0.17754386 -0.03550877 0.89543861
-0.176 -0.03550877 0.89543861
-0.17445613 -0.03550877 0.89543861
-0.17230769 -0.035384614 0.8923077
-0.17076923 -0.035384614 0.8923077
-0.16923077 -0.035384614 0.8923077
-0.1676923 -0.035384614 0.8923077
-0.16557491 -0.035261326 0.8891986
-0.16404182 -0.035261326 0.8891986
-0.16250871 -0.035261326 0.8891986
-0.16097561 -0.035261326 0.8891986
-0.15944251 -0.035261326 0.8891986
-0.15790941 -0.035261326 0.8891986
-0.1563763 -0.035261326 0.8891986
-0.15484321 -0.035261326 0.8891986
-0.15331011 -0.035261326 0.8891986
-0.15125 -0.03513889 0.88611114
-0.14972222 -0.03513889 0.88611114
-0.14819445 -0.03513889 0.88611114
-0.14666666 -0.03513889 0.88611114
-0.14513889 -0.03513889 0.88611114
-0.14361112 -0.03513889 0.88611114
-0.14257839 -0.035261326 0.8891986
-0.1410453 -0.035261326 0.8891986
-0.13902777 -0.03513889 0.88611114
-0.1375 -0.03513889 0.88611114
-0.136446 -0.035261326 0.8891986
-0.13491289 -0.035261326 0.8891986
-0.13291667 -0.03513889 0.88611114
-0.1318467 -0.035261326 0.8891986
-0.13031359 -0.035261326 0.8891986
-0.12878048 -0.035261326 0.8891986
-0.12724739 -0.035261326 0.8891986
-0.12571429 -0.035261326 0.8891986
-0.12461539 -0.035384614 0.8923077
-0.12307692 -0.035384614 0.8923077
-0.12153846 -0.035384614 0.8923077
-0.12 -0.035384614 0.8923077
-0.11846154 -0.035384614 0.8923077
-0.11692308 -0.035384614 0.8923077
-0.11538462 -0.035384614 0.8923077
-0.11384615 -0.035384614 0.8923077
-0.11230769 -0.035384614 0.8923077
-0.11076923 -0.035384614 0.8923077
-0.10961404 -0.03550877 0.89543861
-0.10807017 -0.03550877 0.89543861
-0.10652632 -0.03550877 0.89543861
-0.10572438 -0.035759717 0.90176678
-0.10416961 -0.035759717 0.90176678
-0.10446043 -0.036402877 0.91798562
-0.1028777 -0.036402877 0.91798562
-0.10129496 -0.036402877 0.91798562
-0.09971223 -0.036402877 0.91798562
-0.098129496 -0.036402877 0.91798562
-0.096895307 -0.036534294 0.92129964
-0.095306858 -0.036534294 0.92129964
-0.09371841 -0.036534294 0.92129964
-0.092129961 -0.036534294 0.92129964
-0.090869568 -0.036666665 0.92463768
-0.08927536 -0.036666665 0.92463768
-0.088 -0.036800001 0.92799997
-0.086400002 -0.036800001 0.92799997
-0.084799998 -0.036800001 0.92799997
-0.0832 -0.036800001 0.92799997
-0.0821978 -0.037069596 0.93479854
-0.080586083 -0.037069596 0.93479854
-0.079264708 -0.037205882 0.93823528
-0.07793358 -0.037343174 0.94169742
-0.076309964 -0.037343174 0.94169742
-0.074962966 -0.037481483 0.94518518
-0.07333333 -0.037481483 0.94518518
-0.071970262 -0.037620816 0.94869888
-0.070334576 -0.037620816 0.94869888
-0.068698883 -0.037620816 0.94869888
-0.067063197 -0.037620816 0.94869888
-0.065427512 -0.037620816 0.94869888
-0.063791819 -0.037620816 0.94869888
-0.062156133 -0.037620816 0.94869888
-0.060520448 -0.037620816 0.94869888
-0.058884759 -0.037620816 0.94869888
-0.057249069 -0.037620816 0.94869888
-0.055613384 -0.037620816 0.94869888
-0.053977694 -0.037620816 0.94869888
-0.052148148 -0.037481483 0.94518518
-0.05051852 -0.037481483 0.94518518
-0.04907063 -0.037620816 0.94869888
-0.047434945 -0.037620816 0.94869888
-0.045799255 -0.037620816 0.94869888
-0.04416357 -0.037620816 0.94869888
-0.042527881 -0.037620816 0.94869888
-0.040892195 -0.037620816 0.94869888
-0.039256506 -0.037620816 0.94869888
-0.037620816 -0.037620816 0.94869888
-0.035985131 -0.037620816 0.94869888
-0.034349442 -0.037620816 0.94869888
-0.032713756 -0.037620816 0.94869888
-0.031078067 -0.037620816 0.94869888
-0.029442379 -0.037620816 0.94869888
-0.019775281 -0.037902623 0.95580524
0.013085502 -0.037620816 0.94869888
0.01472119 -0.037620816 0.94869888
0.016356878 -0.037620816 0.94869888
0.017992565 -0.037620816 0.94869888
0.019555556 -0.037481483 0.94518518
0.021185186 -0.037481483 0.94518518
0.022814814 -0.037481483 0.94518518
0.024444444 -0.037481483 0.94518518
0.026074074 -0.037481483 0.94518518
0.027703704 -0.037481483 0.94518518
0.029333333 -0.037481483 0.94518518
0.030962963 -0.037481483 0.94518518
0.032592591 -0.037481483 0.94518518
0.034095939 -0.037343174 0.94169742
0.035851851 -0.037481483 0.94518518
0.037481483 -0.037481483 0.94518518
0.039111111 -0.037481483 0.94518518
0.04074074 -0.037481483 0.94518518
0.042214021 -0.037343174 0.94169742
0.044 -0.037481483 0.94518518
0.045629628 -0.037481483 0.94518518
0.04725926 -0.037481483 0.94518518
0.048708487 -0.037343174 0.94169742
0.050332103 -0.037343174 0.94169742
0.051955719 -0.037343174 0.94169742
0.053777777 -0.037481483 0.94518518
0.055202954 -0.037343174 0.94169742
0.056826569 -0.037343174 0.94169742
0.058450185 -0.037343174 0.94169742
0.0600738 -0.037343174 0.94169742
0.061697416 -0.037343174 0.94169742
0.063321032 -0.037343174 0.94169742
0.064944647 -0.037343174 0.94169742
0.066568263 -0.037343174 0.94169742
0.067199998 -0.036800001 0.92799997
0.068800002 -0.036800001 0.92799997
0.070144929 -0.036666665 0.92463768
0.071480148 -0.036534294 0.92129964
0.073068589 -0.036534294 0.92129964
0.074657038 -0.036534294 0.92129964
0.075971223 -0.036402877 0.91798562
0.077553958 -0.036402877 0.91798562
0.079136692 -0.036402877 0.91798562
0.080430105 -0.036272403 0.91469532
0.08200717 -0.036272403 0.91469532
0.083584227 -0.036272403 0.91469532
0.084857143 -0.036142856 0.91142857
0.086428568 -0.036142856 0.91142857
0.088 -0.036142856 0.91142857
0.089571431 -0.036142856 0.91142857
0.090818502 -0.036014237 0.90818506
0.092384338 -0.036014237 0.90818506
0.09198606 -0.035261326 0.8891986
0.093519166 -0.035261326 0.8891986
0.094722219 -0.03513889 0.88611114
0.096249998 -0.03513889 0.88611114
0.097439446 -0.0350173 0.88304496
0.098961934 -0.0350173 0.88304496
0.10048443 -0.0350173 0.88304496
0.10200692 -0.0350173 0.88304496
0.10352941 -0.0350173 0.88304496
0.10397261 -0.034657534 0.87397259
0.10547945 -0.034657534 0.87397259
0.1069863 -0.034657534 0.87397259
0.10961938 -0.0350173 0.88304496
0.11075862 -0.034896553 0.88
0.11227586 -0.034896553 0.88
0.1137931 -0.034896553 0.88
0.11531034 -0.034896553 0.88
0.11642612 -0.034776632 0.87697595
0.11793815 -0.034776632 0.87697595
0.11945017 -0.034776632 0.87697595
0.1209622 -0.034776632 0.87697595
0.12247422 -0.034776632 0.87697595
0.12398625 -0.034776632 0.87697595
0.12506849 -0.034657534 0.87397259
0.12657534 -0.034657534 0.87397259
0.12808219 -0.034657534 0.87397259
0.12958904 -0.034657534 0.87397259
0.13109589 -0.034657534 0.87397259
0.13260274 -0.034657534 0.87397259
0.13410959 -0.034657534 0.87397259
0.13561644 -0.034657534 0.87397259
0.13712329 -0.034657534 0.87397259
0.13863014 -0.034657534 0.87397259
0.14013699 -0.034657534 0.87397259
0.14164384 -0.034657534 0.87397259
0.14315069 -0.034657534 0.87397259
0.14465754 -0.034657534 0.87397259
0.14616439 -0.034657534 0.87397259
0.14767124 -0.034657534 0.87397259
0.14917809 -0.034657534 0.87397259
0.15068494 -0.034657534 0.87397259
0.15271477 -0.034776632 0.87697595
0.15422681 -0.034776632 0.87697595
0.15573883 -0.034776632 0.87697595
0.1577931 -0.034896553 0.88
0.15931034 -0.034896553 0.88
0.16082759 -0.034896553 0.88
0.16290657 -0.0350173 0.88304496
0.16442907 -0.0350173 0.88304496
0.16595155 -0.0350173 0.88304496
0.16747405 -0.0350173 0.88304496
0.16958334 -0.03513889 0.88611114
0.17170732 -0.035261326 0.8891986
0.17384616 -0.035384614 0.8923077
0.17538461 -0.035384614 0.8923077
0.17692308 -0.035384614 0.8923077
0.17846154 -0.035384614 0.8923077
0.18190813 -0.035759717 0.90176678
0.1834629 -0.035759717 0.90176678
0.18501768 -0.035759717 0.90176678
0.18657243 -0.035759717 0.90176678
-0.198 -0.034571428 0.91142857
-0.19642857 -0.034571428 0.91142857
-0.19485714 -0.034571428 0.91142857
-0.19328572 -0.034571428 0.91142857
-0.19171429 -0.034571428 0.91142857
-0.19014286 -0.034571428 0.91142857
-0.18723404 -0.03432624 0.90496457
-0.18567376 -0.03432624 0.90496457
-0.1834629 -0.034204949 0.90176678
-0.18190813 -0.034204949 0.90176678
-0.17908771 -0.033964913 0.89543861
-0.17692308 -0.033846155 0.8923077
-0.176 -0.033964913 0.89543861
-0.17384616 -0.033846155 0.8923077
-0.17230769 -0.033846155 0.8923077
-0.17076923 -0.033846155 0.8923077
-0.16923077 -0.033846155 0.8923077
-0.16710801 -0.033728223 0.8891986
-0.16557491 -0.033728223 0.8891986
-0.16404182 -0.033728223 0.8891986
-0.16194445 -0.033611111 0.88611114
-0.16041666 -0.033611111 0.88611114
-0.15888889 -0.033611111 0.88611114
-0.15736111 -0.033611111 0.88611114
-0.15583333 -0.033611111 0.88611114
-0.15430556 -0.033611111 0.88611114
-0.15277778 -0.033611111 0.88611114
-0.15125 -0.033611111 0.88611114
-0.14972222 -0.033611111 0.88611114
-0.14819445 -0.033611111 0.88611114
-0.14666666 -0.033611111 0.88611114
-0.14513889 -0.033611111 0.88611114
-0.14361112 -0.033611111 0.88611114
-0.14208333 -0.033611111 0.88611114
-0.14055556 -0.033611111 0.88611114
-0.13902777 -0.033611111 0.88611114
-0.1375 -0.033611111 0.88611114
-0.13597222 -0.033611111 0.88611114
-0.13444445 -0.033611111 0.88611114
-0.13291667 -0.033611111 0.88611114
-0.1318467 -0.033728223 0.8891986
-0.13031359 -0.033728223 0.8891986
-0.12878048 -0.033728223 0.8891986
-0.12724739 -0.033728223 0.8891986
-0.12571429 -0.033728223 0.8891986
-0.12461539 -0.033846155 0.8923077
-0.12179931 -0.033494812 0.88304496
-0.12153846 -0.033846155 0.8923077
-0.12 -0.033846155 0.8923077
-0.11846154 -0.033846155 0.8923077
-0.11692308 -0.033846155 0.8923077
-0.11498258 -0.033728223 0.8891986
-0.11384615 -0.033846155 0.8923077
-0.11230769 -0.033846155 0.8923077
-0.11076923 -0.033846155 0.8923077
-0.10923077 -0.033846155 0.8923077
-0.10807017 -0.033964913 0.89543861
-0.10652632 -0.033964913 0.89543861
-0.10498246 -0.033964913 0.89543861
-0.10528571 -0.034571428 0.91142857
-0.10371429 -0.034571428 0.91142857
-0.1028777 -0.034820143 0.91798562
-0.1009319 -0.034695342 0.91469532
-0.099354841 -0.034695342 0.91469532
-0.098129496 -0.034820143 0.91798562
-0.096546762 -0.034820143 0.91798562
-0.095306858 -0.034945849 0.92129964
-0.09371841 -0.034945849 0.92129964
-0.092129961 -0.034945849 0.92129964
-0.090869568 -0.035072464 0.92463768
-0.08927536 -0.035072464 0.92463768
-0.087681159 -0.035072464 0.92463768
-0.086086959 -0.035072464 0.92463768
-0.084799998 -0.0352 0.92799997
-0.0832 -0.0352 0.92799997
-0.081600003 -0.0352 0.92799997
-0.080586083 -0.035457876 0.93479854
-0.079264708 -0.035588235 0.93823528
-0.07764706 -0.035588235 0.93823528
-0.076309964 -0.035719559 0.94169742
-0.074962966 -0.035851851 0.94518518
-0.073605947 -0.035985131 0.94869888
-0.071970262 -0.035985131 0.94869888
-0.070334576 -0.035985131 0.94869888
-0.068698883 -0.035985131 0.94869888
-0.067063197 -0.035985131 0.94869888
-0.065427512 -0.035985131 0.94869888
-0.063791819 -0.035985131 0.94869888
-0.062156133 -0.035985131 0.94869888
-0.060520448 -0.035985131 0.94869888
-0.058884759 -0.035985131 0.94869888
-0.057249069 -0.035985131 0.94869888
-0.055613384 -0.035985131 0.94869888
-0.053977694 -0.035985131 0.94869888
-0.052148148 -0.035851851 0.94518518
-0.05051852 -0.035851851 0.94518518
-0.048888888 -0.035851851 0.94518518
-0.04725926 -0.035851851 0.94518518
-0.045799255 -0.035985131 0.94869888
-0.044 -0.035851851 0.94518518
-0.042527881 -0.035985131 0.94869888
-0.04074074 -0.035851851 0.94518518
-0.039256506 -0.035985131 0.94869888
-0.037620816 -0.035985131 0.94869888
-0.035985131 -0.035985131 0.94869888
-0.034349442 -0.035985131 0.94869888
-0.032713756 -0.035985131 0.94869888
-0.031078067 -0.035985131 0.94869888
-0.029442379 -0.035985131 0.94869888
0.016356878 -0.035985131 0.94869888
0.017925926 -0.035851851 0.94518518
0.019555556 -0.035851851 0.94518518
0.021185186 -0.035851851 0.94518518
0.022730628 -0.035719559 0.94169742
0.024354244 -0.035719559 0.94169742
0.025977859 -0.035719559 0.94169742
0.027703704 -0.035851851 0.94518518
0.029225092 -0.035719559 0.94169742
0.030848708 -0.035719559 0.94169742
0.032472324 -0.035719559 0.94169742
0.034095939 -0.035719559 0.94169742
0.035719559 -0.035719559 0.94169742
0.037481483 -0.035851851 0.94518518
0.039111111 -0.035851851 0.94518518
0.040590405 -0.035719559 0.94169742
0.042214021 -0.035719559 0.94169742
0.043837637 -0.035719559 0.94169742
0.045461256 -0.035719559 0.94169742
0.047084872 -0.035719559 0.94169742
0.048708487 -0.035719559 0.94169742
0.050332103 -0.035719559 0.94169742
0.051955719 -0.035719559 0.94169742
0.053579334 -0.035719559 0.94169742
0.055202954 -0.035719559 0.94169742
0.056826569 -0.035719559 0.94169742
0.058450185 -0.035719559 0.94169742
0.0600738 -0.035719559 0.94169742
0.061697416 -0.035719559 0.94169742
0.063321032 -0.035719559 0.94169742
0.064944647 -0.035719559 0.94169742
0.066568263 -0.035719559 0.94169742
0.067199998 -0.0352 0.92799997
0.068800002 -0.0352 0.92799997
0.0704 -0.0352 0.92799997
0.071480148 -0.034945849 0.92129964
0.073068589 -0.034945849 0.92129964
0.074388489 -0.034820143 0.91798562
0.075971223 -0.034820143 0.91798562
0.077553958 -0.034820143 0.91798562
0.079136692 -0.034820143 0.91798562
0.080430105 -0.034695342 0.91469532
0.08200717 -0.034695342 0.91469532
0.083584227 -0.034695342 0.91469532
0.084857143 -0.034571428 0.91142857
0.086428568 -0.034571428 0.91142857
0.088 -0.034571428 0.91142857
0.089571431 -0.034571428 0.91142857
0.090818502 -0.0344484 0.90818506
0.091408454 -0.034084506 0.89859158
0.092307694 -0.033846155 0.8923077
0.093519166 -0.033728223 0.8891986
0.094722219 -0.033611111 0.88611114
0.095916957 -0.033494812 0.88304496
0.097439446 -0.033494812 0.88304496
0.098961934 -0.033494812 0.88304496
0.10048443 -0.033494812 0.88304496
0.10200692 -0.033494812 0.88304496
0.10211604 -0.033037543 0.87098974
0.10361775 -0.033037543 0.87098974
0.10547945 -0.033150684 0.87397259
0.1069863 -0.033150684 0.87397259
0.10924138 -0.033379309 0.88
0.11075862 -0.033379309 0.88
0.11227586 -0.033379309 0.88
0.1137931 -0.033379309 0.88
0.11491409 -0.033264603 0.87697595
0.11642612 -0.033264603 0.87697595
0.11793815 -0.033264603 0.87697595
0.11904109 -0.033150684 0.87397259
0.12054794 -0.033150684 0.87397259
0.12247422 -0.033264603 0.87697595
0.12356164 -0.033150684 0.87397259
0.12506849 -0.033150684 0.87397259
0.12657534 -0.033150684 0.87397259
0.12808219 -0.033150684 0.87397259
0.12958904 -0.033150684 0.87397259
0.13109589 -0.033150684 0.87397259
0.13260274 -0.033150684 0.87397259
0.13410959 -0.033150684 0.87397259
0.13561644 -0.033150684 0.87397259
0.13712329 -0.033150684 0.87397259
0.13863014 -0.033150684 0.87397259
0.1396587 -0.033037543 0.87098974
0.14164384 -0.033150684 0.87397259
0.14315069 -0.033150684 0.87397259
0.14465754 -0.033150684 0.87397259
0.14616439 -0.033150684 0.87397259
0.14767124 -0.033150684 0.87397259
0.14917809 -0.033150684 0.87397259
0.15068494 -0.033150684 0.87397259
0.15271477 -0.033264603 0.87697595
0.15422681 -0.033264603 0.87697595
0.15573883 -0.033264603 0.87697595
0.1577931 -0.033379309 0.88
0.15931034 -0.033379309 0.88
0.16082759 -0.033379309 0.88
0.16234483 -0.033379309 0.88
0.16442907 -0.033494812 0.88304496
0.16595155 -0.033494812 0.88304496
0.16747405 -0.033494812 0.88304496
0.16958334 -0.033611111 0.88611114
0.17111111 -0.033611111 0.88611114
0.17384616 -0.033846155 0.8923077
0.17477351 -0.033728223 0.8891986
0.17692308 -0.033846155 0.8923077
0.17908771 -0.033964913 0.89543861
0.18190813 -0.034204949 0.90176678
0.1834629 -0.034204949 0.90176678
0.18501768 -0.034204949 0.90176678
0.18657243 -0.034204949 0.90176678
0.1881272 -0.034204949 0.90176678
-0.19642857 -0.033 0.91142857
-0.19485714 -0.033 0.91142857
-0.19328572 -0.033 0.91142857
-0.19171429 -0.033 0.91142857
-0.18879433 -0.032765958 0.90496457
-0.18723404 -0.032765958 0.90496457
-0.18567376 -0.032765958 0.90496457
-0.18281691 -0.03253521 0.89859158
-0.18063158 -0.032421052 0.89543861
-0.17908771 -0.032421052 0.89543861
-0.17692308 -0.032307692 0.8923077
-0.17538461 -0.032307692 0.8923077
-0.17384616 -0.032307692 0.8923077
-0.17230769 -0.032307692 0.8923077
-0.17076923 -0.032307692 0.8923077
-0.16864112 -0.032195121 0.8891986
-0.16710801 -0.032195121 0.8891986
-0.16557491 -0.032195121 0.8891986
-0.16347222 -0.032083333 0.88611114
-0.16194445 -0.032083333 0.88611114
-0.16041666 -0.032083333 0.88611114
-0.15888889 -0.032083333 0.88611114
-0.15736111 -0.032083333 0.88611114
-0.15583333 -0.032083333 0.88611114
-0.15430556 -0.032083333 0.88611114
-0.15277778 -0.032083333 0.88611114
-0.15125 -0.032083333 0.88611114
-0.14972222 -0.032083333 0.88611114
-0.14819445 -0.032083333 0.88611114
-0.14666666 -0.032083333 0.88611114
-0.14463668 -0.031972319 0.88304496
-0.14361112 -0.032083333 0.88611114
-0.1415917 -0.031972319 0.88304496
-0.1400692 -0.031972319 0.88304496
-0.13902777 -0.032083333 0.88611114
-0.1375 -0.032083333 0.88611114
-0.13597222 -0.032083333 0.88611114
-0.13444445 -0.032083333 0.88611114
-0.13291667 -0.032083333 0.88611114
-0.13138889 -0.032083333 0.88611114
-0.13031359 -0.032195121 0.8891986
-0.12833333 -0.032083333 0.88611114
-0.12680556 -0.032083333 0.88611114
-0.12571429 -0.032195121 0.8891986
-0.1233218 -0.031972319 0.88304496
