ply
format ascii 1.0
comment PCL generated
element vertex 1350
property float x
property float y
property float z
element camera 0
property float view_px
property float view_py
property float view_pz
property float x_axisx
property float x_axisy
property float x_axisz
property float y_axisx
property float y_axisy
property float y_axisz
property float z_axisx
property float z_axisy
property float z_axisz
property float focal
property float scalex
property float scaley
property float centerx
property float centery
property int viewportx
property int viewporty
property float k1
property float k2
end_header
0.073605947 -0.022899628 0.94869888
0.075241633 -0.022899628 0.94869888
0.076309964 -0.022730628 0.94169742
0.07764706 -0.022647059 0.93823528
0.078974359 -0.022564102 0.93479854
0.080291972 -0.022481753 0.93138689
0.08189781 -0.022481753 0.93138689
0.0832 -0.022399999 0.92799997
0.084799998 -0.022399999 0.92799997
0.086400002 -0.022399999 0.92799997
0.088 -0.022399999 0.92799997
0.08927536 -0.02231884 0.92463768
0.090541519 -0.022238268 0.92129964
0.092463769 -0.02231884 0.92463768
0.09405797 -0.02231884 0.92463768
0.094623655 -0.022078853 0.91469532
0.096200719 -0.022078853 0.91469532
0.0957193 -0.021614036 0.89543861
0.097263157 -0.021614036 0.89543861
0.099154927 -0.021690141 0.89859158
0.10035088 -0.021614036 0.89543861
0.10189474 -0.021614036 0.89543861
0.10343859 -0.021614036 0.89543861
0.10317241 -0.02124138 0.88
0.10468966 -0.02124138 0.88
0.10620689 -0.02124138 0.88
0.10885017 -0.021463415 0.8891986
0.11038327 -0.021463415 0.8891986
0.11270175 -0.021614036 0.89543861
0.11384615 -0.021538461 0.8923077
0.11538462 -0.021538461 0.8923077
0.11651568 -0.021463415 0.8891986
0.11804878 -0.021463415 0.8891986
0.11958188 -0.021463415 0.8891986
0.12111498 -0.021463415 0.8891986
0.12264808 -0.021463415 0.8891986
0.12375 -0.021388888 0.88611114
0.12527777 -0.021388888 0.88611114
0.12680556 -0.021388888 0.88611114
0.12833333 -0.021388888 0.88611114
0.12986112 -0.021388888 0.88611114
0.13138889 -0.021388888 0.88611114
0.13291667 -0.021388888 0.88611114
0.13444445 -0.021388888 0.88611114
0.13597222 -0.021388888 0.88611114
0.1375 -0.021388888 0.88611114
0.13902777 -0.021388888 0.88611114
0.14055556 -0.021388888 0.88611114
0.14208333 -0.021388888 0.88611114
0.14361112 -0.021388888 0.88611114
0.14513889 -0.021388888 0.88611114
0.14666666 -0.021388888 0.88611114
0.14819445 -0.021388888 0.88611114
0.14972222 -0.021388888 0.88611114
0.15125 -0.021388888 0.88611114
0.15277778 -0.021388888 0.88611114
0.15430556 -0.021388888 0.88611114
0.1563763 -0.021463415 0.8891986
0.15790941 -0.021463415 0.8891986
0.15944251 -0.021463415 0.8891986
0.16097561 -0.021463415 0.8891986
0.16250871 -0.021463415 0.8891986
0.16461538 -0.021538461 0.8923077
0.16615385 -0.021538461 0.8923077
0.1676923 -0.021538461 0.8923077
0.16982456 -0.021614036 0.89543861
0.17136842 -0.021614036 0.89543861
0.17352113 -0.021690141 0.89859158
0.17507042 -0.021690141 0.89859158
0.17661972 -0.021690141 0.89859158
0.17879859 -0.021766784 0.90176678
0.18035336 -0.021766784 0.90176678
0.18320285 -0.021921707 0.90818506
0.18476868 -0.021921707 0.90818506
0.18767025 -0.022078853 0.91469532
0.18924731 -0.022078853 0.91469532
0.19082437 -0.022078853 0.91469532
0.19240144 -0.022078853 0.91469532
-0.18971014 -0.020724637 0.92463768
-0.18811594 -0.020724637 0.92463768
-0.18652174 -0.020724637 0.92463768
-0.18492754 -0.020724637 0.92463768
-0.18333334 -0.020724637 0.92463768
-0.18173914 -0.020724637 0.92463768
-0.17757143 -0.020428572 0.91142857
-0.176 -0.020428572 0.91142857
-0.17442857 -0.020428572 0.91142857
-0.17285714 -0.020428572 0.91142857
-0.17128572 -0.020428572 0.91142857
-0.16971429 -0.020428572 0.91142857
-0.16754448 -0.020355873 0.90818506
-0.16539007 -0.020283688 0.90496457
-0.16382979 -0.020283688 0.90496457
-0.1622695 -0.020283688 0.90496457
-0.16070922 -0.020283688 0.90496457
-0.15914893 -0.020283688 0.90496457
-0.1570318 -0.020212013 0.90176678
-0.15547703 -0.020212013 0.90176678
-0.15392226 -0.020212013 0.90176678
-0.15183099 -0.020140845 0.89859158
-0.1502817 -0.020140845 0.89859158
-0.14873239 -0.020140845 0.89859158
-0.14718311 -0.020140845 0.89859158
-0.1456338 -0.020140845 0.89859158
-0.14408451 -0.020140845 0.89859158
-0.14253521 -0.020140845 0.89859158
-0.14098592 -0.020140845 0.89859158
-0.13943662 -0.020140845 0.89859158
-0.13788733 -0.020140845 0.89859158
-0.13633803 -0.020140845 0.89859158
-0.13478874 -0.020140845 0.89859158
-0.13323943 -0.020140845 0.89859158
-0.13169014 -0.020140845 0.89859158
-0.13014084 -0.020140845 0.89859158
-0.12859155 -0.020140845 0.89859158
-0.12749116 -0.020212013 0.90176678
-0.12593639 -0.020212013 0.90176678
-0.12438162 -0.020212013 0.90176678
-0.12282685 -0.020212013 0.90176678
-0.12127209 -0.020212013 0.90176678
-0.11971731 -0.020212013 0.90176678
-0.11858156 -0.020283688 0.90496457
-0.11702128 -0.020283688 0.90496457
-0.11505301 -0.020212013 0.90176678
-0.11349823 -0.020212013 0.90176678
-0.11115789 -0.020070175 0.89543861
-0.11078014 -0.020283688 0.90496457
-0.10921986 -0.020283688 0.90496457
-0.10765957 -0.020283688 0.90496457
-0.10609929 -0.020283688 0.90496457
-0.10453901 -0.020283688 0.90496457
-0.10297872 -0.020283688 0.90496457
-0.10141844 -0.020283688 0.90496457
-0.099858157 -0.020283688 0.90496457
-0.098647684 -0.020355873 0.90818506
-0.097081847 -0.020355873 0.90818506
-0.096200719 -0.020501792 0.91469532
-0.09565217 -0.020724637 0.92463768
-0.09405797 -0.020724637 0.92463768
-0.093138687 -0.020875912 0.93138689
-0.091200002 -0.0208 0.92799997
-0.08992701 -0.020875912 0.93138689
-0.088644691 -0.020952381 0.93479854
-0.087032966 -0.020952381 0.93479854
-0.085421242 -0.020952381 0.93479854
-0.083809525 -0.020952381 0.93479854
-0.082500003 -0.021029411 0.93823528
-0.080882356 -0.021029411 0.93823528
-0.079264708 -0.021029411 0.93823528
-0.07764706 -0.021029411 0.93823528
-0.076309964 -0.021107011 0.94169742
-0.074962966 -0.021185186 0.94518518
-0.073880598 -0.021343283 0.9522388
-0.072238803 -0.021343283 0.9522388
-0.070597015 -0.021343283 0.9522388
-0.069473684 -0.02150376 0.95939851
-0.067819551 -0.02150376 0.95939851
-0.06616541 -0.02150376 0.95939851
-0.064511277 -0.02150376 0.95939851
-0.062857144 -0.02150376 0.95939851
-0.060973782 -0.021423221 0.95580524
-0.059325844 -0.021423221 0.95580524
-0.057677902 -0.021423221 0.95580524
-0.056029964 -0.021423221 0.95580524
-0.054382022 -0.021423221 0.95580524
-0.052537315 -0.021343283 0.9522388
-0.050895523 -0.021343283 0.9522388
-0.049253732 -0.021343283 0.9522388
-0.047611941 -0.021343283 0.9522388
-0.045970149 -0.021343283 0.9522388
-0.044494383 -0.021423221 0.95580524
-0.042846441 -0.021423221 0.95580524
-0.041198503 -0.021423221 0.95580524
-0.039550561 -0.021423221 0.95580524
-0.037902623 -0.021423221 0.95580524
-0.036254682 -0.021423221 0.95580524
-0.034736842 -0.02150376 0.95939851
-0.033082705 -0.02150376 0.95939851
-0.031428572 -0.02150376 0.95939851
-0.029999999 -0.021666666 0.96666664
-0.028333334 -0.021666666 0.96666664
-0.026666667 -0.021666666 0.96666664
0.03131086 -0.021423221 0.95580524
0.032958802 -0.021423221 0.95580524
0.03460674 -0.021423221 0.95580524
0.036254682 -0.021423221 0.95580524
0.037902623 -0.021423221 0.95580524
0.039550561 -0.021423221 0.95580524
0.041044775 -0.021343283 0.9522388
0.042686567 -0.021343283 0.9522388
0.044494383 -0.021423221 0.95580524
0.046142321 -0.021423221 0.95580524
0.047969926 -0.02150376 0.95939851
0.049438201 -0.021423221 0.95580524
0.051086143 -0.021423221 0.95580524
0.052734081 -0.021423221 0.95580524
0.055613384 -0.02126394 0.94869888
0.057249069 -0.02126394 0.94869888
0.058884759 -0.02126394 0.94869888
0.060520448 -0.02126394 0.94869888
0.062156133 -0.02126394 0.94869888
0.063791819 -0.02126394 0.94869888
0.065671645 -0.021343283 0.9522388
0.067313433 -0.021343283 0.9522388
0.06895522 -0.021343283 0.9522388
0.070597015 -0.021343283 0.9522388
0.072238803 -0.021343283 0.9522388
0.073605947 -0.02126394 0.94869888
0.074962966 -0.021185186 0.94518518
0.075750917 -0.020952381 0.93479854
0.077362634 -0.020952381 0.93479854
0.078974359 -0.020952381 0.93479854
0.080291972 -0.020875912 0.93138689
0.08189781 -0.020875912 0.93138689
0.0832 -0.0208 0.92799997
0.084799998 -0.0208 0.92799997
0.086086959 -0.020724637 0.92463768
0.087681159 -0.020724637 0.92463768
0.08927536 -0.020724637 0.92463768
0.090541519 -0.020649819 0.92129964
0.092129961 -0.020649819 0.92129964
0.093381293 -0.02057554 0.91798562
0.094964027 -0.02057554 0.91798562
0.094175436 -0.020070175 0.89543861
0.0957193 -0.020070175 0.89543861
0.097263157 -0.020070175 0.89543861
0.098807015 -0.020070175 0.89543861
0.10035088 -0.020070175 0.89543861
0.10189474 -0.020070175 0.89543861
0.10307692 -0.02 0.8923077
0.10317241 -0.019724138 0.88
0.10468966 -0.019724138 0.88
0.10657439 -0.019792387 0.88304496
0.10885017 -0.019930314 0.8891986
0.11038327 -0.019930314 0.8891986
0.11191638 -0.019930314 0.8891986
0.11344948 -0.019930314 0.8891986
0.11498258 -0.019930314 0.8891986
0.11651568 -0.019930314 0.8891986
0.11804878 -0.019930314 0.8891986
0.11958188 -0.019930314 0.8891986
0.12111498 -0.019930314 0.8891986
0.12222222 -0.019861111 0.88611114
0.12375 -0.019861111 0.88611114
0.12527777 -0.019861111 0.88611114
0.12680556 -0.019861111 0.88611114
0.12833333 -0.019861111 0.88611114
0.12986112 -0.019861111 0.88611114
0.13138889 -0.019861111 0.88611114
0.13291667 -0.019861111 0.88611114
0.13444445 -0.019861111 0.88611114
0.13597222 -0.019861111 0.88611114
0.13702422 -0.019792387 0.88304496
0.13854672 -0.019792387 0.88304496
0.14055556 -0.019861111 0.88611114
0.14208333 -0.019861111 0.88611114
0.14361112 -0.019861111 0.88611114
0.14513889 -0.019861111 0.88611114
0.14666666 -0.019861111 0.88611114
0.14819445 -0.019861111 0.88611114
0.14972222 -0.019861111 0.88611114
0.15125 -0.019861111 0.88611114
0.15277778 -0.019861111 0.88611114
0.15430556 -0.019861111 0.88611114
0.15583333 -0.019861111 0.88611114
0.15736111 -0.019861111 0.88611114
0.15944251 -0.019930314 0.8891986
0.16097561 -0.019930314 0.8891986
0.16250871 -0.019930314 0.8891986
0.16404182 -0.019930314 0.8891986
0.16615385 -0.02 0.8923077
0.1676923 -0.02 0.8923077
0.16982456 -0.020070175 0.89543861
0.17076923 -0.02 0.8923077
0.17291228 -0.020070175 0.89543861
0.17445613 -0.020070175 0.89543861
0.17661972 -0.020140845 0.89859158
0.17879859 -0.020212013 0.90176678
0.18035336 -0.020212013 0.90176678
0.18255319 -0.020283688 0.90496457
0.18476868 -0.020355873 0.90818506
0.18633452 -0.020355873 0.90818506
0.18924731 -0.020501792 0.91469532
0.19082437 -0.020501792 0.91469532
0.19240144 -0.020501792 0.91469532
-0.18811594 -0.019130435 0.92463768
-0.18652174 -0.019130435 0.92463768
-0.18492754 -0.019130435 0.92463768
-0.18333334 -0.019130435 0.92463768
-0.17914286 -0.018857142 0.91142857
-0.17757143 -0.018857142 0.91142857
-0.176 -0.018857142 0.91142857
-0.17442857 -0.018857142 0.91142857
-0.17285714 -0.018857142 0.91142857
-0.17128572 -0.018857142 0.91142857
-0.16971429 -0.018857142 0.91142857
-0.16695036 -0.018723404 0.90496457
-0.16539007 -0.018723404 0.90496457
-0.16382979 -0.018723404 0.90496457
-0.16169611 -0.018657245 0.90176678
-0.16070922 -0.018723404 0.90496457
-0.15914893 -0.018723404 0.90496457
-0.1570318 -0.018657245 0.90176678
-0.15492958 -0.018591549 0.89859158
-0.15338027 -0.018591549 0.89859158
-0.15183099 -0.018591549 0.89859158
-0.1502817 -0.018591549 0.89859158
-0.14873239 -0.018591549 0.89859158
-0.14718311 -0.018591549 0.89859158
-0.1456338 -0.018591549 0.89859158
-0.14408451 -0.018591549 0.89859158
-0.14253521 -0.018591549 0.89859158
-0.14098592 -0.018591549 0.89859158
-0.13943662 -0.018591549 0.89859158
-0.13788733 -0.018591549 0.89859158
-0.13633803 -0.018591549 0.89859158
-0.13478874 -0.018591549 0.89859158
-0.13277192 -0.018526316 0.89543861
-0.13169014 -0.018591549 0.89859158
-0.13014084 -0.018591549 0.89859158
-0.12859155 -0.018591549 0.89859158
-0.12704225 -0.018591549 0.89859158
-0.12549296 -0.018591549 0.89859158
-0.12394366 -0.018591549 0.89859158
-0.12239437 -0.018591549 0.89859158
-0.12084507 -0.018591549 0.89859158
-0.11929578 -0.018591549 0.89859158
-0.11774648 -0.018591549 0.89859158
-0.11660777 -0.018657245 0.90176678
-0.11505301 -0.018657245 0.90176678
-0.11349823 -0.018657245 0.90176678
-0.11115789 -0.018526316 0.89543861
-0.11078014 -0.018723404 0.90496457
-0.10921986 -0.018723404 0.90496457
-0.10765957 -0.018723404 0.90496457
-0.10609929 -0.018723404 0.90496457
-0.10453901 -0.018723404 0.90496457
-0.10297872 -0.018723404 0.90496457
-0.10141844 -0.018723404 0.90496457
-0.099858157 -0.018723404 0.90496457
-0.098647684 -0.018790036 0.90818506
-0.097081847 -0.018790036 0.90818506
-0.095516011 -0.018790036 0.90818506
-0.09565217 -0.019130435 0.92463768
-0.094400004 -0.019200001 0.92799997
-0.092799999 -0.019200001 0.92799997
-0.091200002 -0.019200001 0.92799997
-0.08992701 -0.019270074 0.93138689
-0.088321164 -0.019270074 0.93138689
-0.087032966 -0.019340659 0.93479854
-0.085421242 -0.019340659 0.93479854
-0.083809525 -0.019340659 0.93479854
-0.082500003 -0.019411765 0.93823528
-0.080882356 -0.019411765 0.93823528
-0.079264708 -0.019411765 0.93823528
-0.07764706 -0.019411765 0.93823528
-0.076309964 -0.019483395 0.94169742
-0.074686348 -0.019483395 0.94169742
-0.073605947 -0.019628253 0.94869888
-0.072238803 -0.019701492 0.9522388
-0.070597015 -0.019701492 0.9522388
-0.069473684 -0.019849624 0.95939851
-0.067819551 -0.019849624 0.95939851
-0.06616541 -0.019849624 0.95939851
-0.064269662 -0.019775281 0.95580524
-0.06262172 -0.019775281 0.95580524
-0.060973782 -0.019775281 0.95580524
-0.059325844 -0.019775281 0.95580524
-0.057677902 -0.019775281 0.95580524
-0.056029964 -0.019775281 0.95580524
-0.054179106 -0.019701492 0.9522388
-0.052537315 -0.019701492 0.9522388
-0.050895523 -0.019701492 0.9522388
-0.049253732 -0.019701492 0.9522388
-0.047611941 -0.019701492 0.9522388
-0.045970149 -0.019701492 0.9522388
-0.044328358 -0.019701492 0.9522388
-0.042686567 -0.019701492 0.9522388
-0.041044775 -0.019701492 0.9522388
-0.039550561 -0.019775281 0.95580524
-0.037902623 -0.019775281 0.95580524
-0.036254682 -0.019775281 0.95580524
-0.034736842 -0.019849624 0.95939851
-0.033082705 -0.019849624 0.95939851
-0.031428572 -0.019849624 0.95939851
-0.029774437 -0.019849624 0.95939851
0.03131086 -0.019775281 0.95580524
0.032958802 -0.019775281 0.95580524
0.03460674 -0.019775281 0.95580524
0.036254682 -0.019775281 0.95580524
0.037902623 -0.019775281 0.95580524
0.039402984 -0.019701492 0.9522388
0.041044775 -0.019701492 0.9522388
0.042686567 -0.019701492 0.9522388
0.044328358 -0.019701492 0.9522388
0.046142321 -0.019775281 0.95580524
0.047790263 -0.019775281 0.95580524
0.049438201 -0.019775281 0.95580524
0.051086143 -0.019775281 0.95580524
0.052734081 -0.019775281 0.95580524
0.055613384 -0.019628253 0.94869888
0.057249069 -0.019628253 0.94869888
0.058884759 -0.019628253 0.94869888
0.060520448 -0.019628253 0.94869888
0.062156133 -0.019628253 0.94869888
0.063791819 -0.019628253 0.94869888
0.065671645 -0.019701492 0.9522388
0.067313433 -0.019701492 0.9522388
0.06895522 -0.019701492 0.9522388
0.070597015 -0.019701492 0.9522388
0.072238803 -0.019701492 0.9522388
0.073605947 -0.019628253 0.94869888
0.074962966 -0.019555556 0.94518518
0.076592594 -0.019555556 0.94518518
0.077362634 -0.019340659 0.93479854
0.078974359 -0.019340659 0.93479854
0.080291972 -0.019270074 0.93138689
0.081600003 -0.019200001 0.92799997
0.0832 -0.019200001 0.92799997
0.08449275 -0.019130435 0.92463768
0.086086959 -0.019130435 0.92463768
0.087681159 -0.019130435 0.92463768
0.08927536 -0.019130435 0.92463768
0.090541519 -0.019061372 0.92129964
0.091798559 -0.018992806 0.91798562
0.093381293 -0.018992806 0.91798562
0.094964027 -0.018992806 0.91798562
0.094175436 -0.018526316 0.89543861
0.0957193 -0.018526316 0.89543861
0.096923076 -0.018461538 0.8923077
0.098807015 -0.018526316 0.89543861
0.10035088 -0.018526316 0.89543861
0.10153846 -0.018461538 0.8923077
0.10307692 -0.018461538 0.8923077
0.10461538 -0.018461538 0.8923077
0.10468966 -0.018206896 0.88
0.10657439 -0.018269897 0.88304496
0.10847222 -0.018333333 0.88611114
0.11076923 -0.018461538 0.8923077
0.11230769 -0.018461538 0.8923077
0.11344948 -0.018397212 0.8891986
0.11498258 -0.018397212 0.8891986
0.11651568 -0.018397212 0.8891986
0.11804878 -0.018397212 0.8891986
0.11916666 -0.018333333 0.88611114
0.12069444 -0.018333333 0.88611114
0.12222222 -0.018333333 0.88611114
0.12375 -0.018333333 0.88611114
0.12527777 -0.018333333 0.88611114
0.12636678 -0.018269897 0.88304496
0.12833333 -0.018333333 0.88611114
0.12941177 -0.018269897 0.88304496
0.13138889 -0.018333333 0.88611114
0.13291667 -0.018333333 0.88611114
0.13397925 -0.018269897 0.88304496
0.13550173 -0.018269897 0.88304496
0.13702422 -0.018269897 0.88304496
0.13854672 -0.018269897 0.88304496
0.1400692 -0.018269897 0.88304496
0.1415917 -0.018269897 0.88304496
0.14311419 -0.018269897 0.88304496
0.14513889 -0.018333333 0.88611114
0.14666666 -0.018333333 0.88611114
0.14819445 -0.018333333 0.88611114
0.14972222 -0.018333333 0.88611114
0.15125 -0.018333333 0.88611114
0.15224913 -0.018269897 0.88304496
0.15430556 -0.018333333 0.88611114
0.15583333 -0.018333333 0.88611114
0.15736111 -0.018333333 0.88611114
0.15888889 -0.018333333 0.88611114
0.16097561 -0.018397212 0.8891986
0.16250871 -0.018397212 0.8891986
0.16404182 -0.018397212 0.8891986
0.16557491 -0.018397212 0.8891986
0.16710801 -0.018397212 0.8891986
0.16923077 -0.018461538 0.8923077
0.17076923 -0.018461538 0.8923077
0.17230769 -0.018461538 0.8923077
0.17445613 -0.018526316 0.89543861
0.176 -0.018526316 0.89543861
0.17879859 -0.018657245 0.90176678
0.1809929 -0.018723404 0.90496457
0.18255319 -0.018723404 0.90496457
0.18476868 -0.018790036 0.90818506
0.18767025 -0.018924732 0.91469532
0.18924731 -0.018924732 0.91469532
0.19082437 -0.018924732 0.91469532
0.19240144 -0.018924732 0.91469532
0.19397849 -0.018924732 0.91469532
-0.18811594 -0.017536232 0.92463768
-0.18652174 -0.017536232 0.92463768
-0.18359712 -0.017410072 0.91798562
-0.18201439 -0.017410072 0.91798562
-0.18043165 -0.017410072 0.91798562
-0.17757143 -0.017285714 0.91142857
-0.176 -0.017285714 0.91142857
-0.17442857 -0.017285714 0.91142857
-0.17285714 -0.017285714 0.91142857
-0.17128572 -0.017285714 0.91142857
-0.16851065 -0.01716312 0.90496457
-0.16695036 -0.01716312 0.90496457
-0.16539007 -0.01716312 0.90496457
-0.16382979 -0.01716312 0.90496457
-0.16169611 -0.017102474 0.90176678
-0.16014135 -0.017102474 0.90176678
-0.15802817 -0.017042253 0.89859158
-0.15647887 -0.017042253 0.89859158
-0.15492958 -0.017042253 0.89859158
-0.15338027 -0.017042253 0.89859158
-0.15183099 -0.017042253 0.89859158
-0.1502817 -0.017042253 0.89859158
-0.14821053 -0.016982457 0.89543861
-0.14666666 -0.016982457 0.89543861
-0.14512281 -0.016982457 0.89543861
-0.14408451 -0.017042253 0.89859158
-0.14203508 -0.016982457 0.89543861
-0.14049123 -0.016982457 0.89543861
-0.13943662 -0.017042253 0.89859158
-0.1374035 -0.016982457 0.89543861
-0.13585965 -0.016982457 0.89543861
-0.13431579 -0.016982457 0.89543861
-0.13277192 -0.016982457 0.89543861
-0.13122807 -0.016982457 0.89543861
-0.12968421 -0.016982457 0.89543861
-0.12814035 -0.016982457 0.89543861
-0.12704225 -0.017042253 0.89859158
-0.12549296 -0.017042253 0.89859158
-0.12394366 -0.017042253 0.89859158
-0.12239437 -0.017042253 0.89859158
-0.12084507 -0.017042253 0.89859158
-0.11929578 -0.017042253 0.89859158
-0.11774648 -0.017042253 0.89859158
-0.11619718 -0.017042253 0.89859158
-0.11505301 -0.017102474 0.90176678
-0.11309859 -0.017042253 0.89859158
-0.1115493 -0.017042253 0.89859158
-0.10885017 -0.016864112 0.8891986
-0.10731708 -0.016864112 0.8891986
-0.10765957 -0.01716312 0.90496457
-0.10609929 -0.01716312 0.90496457
-0.10453901 -0.01716312 0.90496457
-0.10297872 -0.01716312 0.90496457
-0.10141844 -0.01716312 0.90496457
-0.099505298 -0.017102474 0.90176678
-0.097950533 -0.017102474 0.90176678
-0.097081847 -0.0172242 0.90818506
-0.095516011 -0.0172242 0.90818506
-0.095306858 -0.017472925 0.92129964
-0.094400004 -0.0176 0.92799997
-0.092799999 -0.0176 0.92799997
-0.091200002 -0.0176 0.92799997
-0.08992701 -0.017664233 0.93138689
-0.088321164 -0.017664233 0.93138689
-0.086715326 -0.017664233 0.93138689
-0.085421242 -0.017728938 0.93479854
-0.083503649 -0.017664233 0.93138689
-0.08189781 -0.017664233 0.93138689
-0.080586083 -0.017728938 0.93479854
-0.079264708 -0.017794117 0.93823528
-0.07764706 -0.017794117 0.93823528
-0.076029412 -0.017794117 0.93823528
-0.074686348 -0.017859779 0.94169742
-0.073605947 -0.017992565 0.94869888
-0.071970262 -0.017992565 0.94869888
-0.070334576 -0.017992565 0.94869888
-0.069473684 -0.018195489 0.95939851
-0.067819551 -0.018195489 0.95939851
-0.06616541 -0.018195489 0.95939851
-0.064269662 -0.018127341 0.95580524
-0.06262172 -0.018127341 0.95580524
-0.060973782 -0.018127341 0.95580524
-0.059325844 -0.018127341 0.95580524
-0.057677902 -0.018127341 0.95580524
-0.055820897 -0.018059701 0.9522388
-0.054179106 -0.018059701 0.9522388
-0.052537315 -0.018059701 0.9522388
-0.050895523 -0.018059701 0.9522388
-0.049253732 -0.018059701 0.9522388
-0.047611941 -0.018059701 0.9522388
-0.045970149 -0.018059701 0.9522388
-0.044328358 -0.018059701 0.9522388
-0.042686567 -0.018059701 0.9522388
-0.041044775 -0.018059701 0.9522388
-0.039550561 -0.018127341 0.95580524
-0.037902623 -0.018127341 0.95580524
-0.036254682 -0.018127341 0.95580524
-0.03460674 -0.018127341 0.95580524
-0.033082705 -0.018195489 0.95939851
-0.031428572 -0.018195489 0.95939851
-0.029774437 -0.018195489 0.95939851
0.034349442 -0.017992565 0.94869888
0.035985131 -0.017992565 0.94869888
0.037620816 -0.017992565 0.94869888
0.039402984 -0.018059701 0.9522388
0.041044775 -0.018059701 0.9522388
0.042686567 -0.018059701 0.9522388
0.044328358 -0.018059701 0.9522388
0.045970149 -0.018059701 0.9522388
0.047611941 -0.018059701 0.9522388
0.049438201 -0.018127341 0.95580524
0.053777777 -0.017925926 0.94518518
0.055407409 -0.017925926 0.94518518
0.057037037 -0.017925926 0.94518518
0.058884759 -0.017992565 0.94869888
0.060520448 -0.017992565 0.94869888
0.062156133 -0.017992565 0.94869888
0.063791819 -0.017992565 0.94869888
0.065671645 -0.018059701 0.9522388
0.067313433 -0.018059701 0.9522388
0.068698883 -0.017992565 0.94869888
0.070334576 -0.017992565 0.94869888
0.072238803 -0.018059701 0.9522388
0.073605947 -0.017992565 0.94869888
0.074962966 -0.017925926 0.94518518
0.076592594 -0.017925926 0.94518518
0.076800004 -0.0176 0.92799997
0.078400001 -0.0176 0.92799997
0.079999998 -0.0176 0.92799997
0.081600003 -0.0176 0.92799997
0.08289855 -0.017536232 0.92463768
0.08449275 -0.017536232 0.92463768
0.086086959 -0.017536232 0.92463768
0.087364621 -0.017472925 0.92129964
0.08895307 -0.017472925 0.92129964
0.090215825 -0.017410072 0.91798562
0.091798559 -0.017410072 0.91798562
0.093381293 -0.017410072 0.91798562
0.092631578 -0.016982457 0.89543861
0.094175436 -0.016982457 0.89543861
0.0957193 -0.016982457 0.89543861
0.096923076 -0.016923077 0.8923077
0.098461539 -0.016923077 0.8923077
0.1 -0.016923077 0.8923077
0.10153846 -0.016923077 0.8923077
0.10307692 -0.016923077 0.8923077
0.10317241 -0.016689654 0.88
0.10468966 -0.016689654 0.88
0.10657439 -0.016747406 0.88304496
0.10847222 -0.016805556 0.88611114
0.11076923 -0.016923077 0.8923077
0.11230769 -0.016923077 0.8923077
0.11344948 -0.016864112 0.8891986
0.11498258 -0.016864112 0.8891986
0.11651568 -0.016864112 0.8891986
0.11804878 -0.016864112 0.8891986
0.11916666 -0.016805556 0.88611114
0.12069444 -0.016805556 0.88611114
0.12222222 -0.016805556 0.88611114
0.1233218 -0.016747406 0.88304496
0.12484429 -0.016747406 0.88304496
0.12636678 -0.016747406 0.88304496
0.12788928 -0.016747406 0.88304496
0.12941177 -0.016747406 0.88304496
0.13093425 -0.016747406 0.88304496
0.13245675 -0.016747406 0.88304496
0.13397925 -0.016747406 0.88304496
0.13550173 -0.016747406 0.88304496
0.13702422 -0.016747406 0.88304496
0.13854672 -0.016747406 0.88304496
0.1400692 -0.016747406 0.88304496
0.1415917 -0.016747406 0.88304496
0.14311419 -0.016747406 0.88304496
0.14463668 -0.016747406 0.88304496
0.14615917 -0.016747406 0.88304496
0.14768165 -0.016747406 0.88304496
0.14920415 -0.016747406 0.88304496
0.15072665 -0.016747406 0.88304496
0.15224913 -0.016747406 0.88304496
0.15377162 -0.016747406 0.88304496
0.15529412 -0.016747406 0.88304496
0.15736111 -0.016805556 0.88611114
0.15888889 -0.016805556 0.88611114
0.16041666 -0.016805556 0.88611114
0.16194445 -0.016805556 0.88611114
0.16404182 -0.016864112 0.8891986
0.16557491 -0.016864112 0.8891986
0.16710801 -0.016864112 0.8891986
0.16864112 -0.016864112 0.8891986
0.17076923 -0.016923077 0.8923077
0.17230769 -0.016923077 0.8923077
0.17445613 -0.016982457 0.89543861
0.17661972 -0.017042253 0.89859158
0.17879859 -0.017102474 0.90176678
0.18035336 -0.017102474 0.90176678
0.18255319 -0.01716312 0.90496457
0.18542857 -0.017285714 0.91142857
0.18700001 -0.017285714 0.91142857
0.18924731 -0.017347671 0.91469532
0.19082437 -0.017347671 0.91469532
0.19240144 -0.017347671 0.91469532
-0.18676259 -0.015827337 0.91798562
-0.18517986 -0.015827337 0.91798562
-0.18359712 -0.015827337 0.91798562
-0.18201439 -0.015827337 0.91798562
-0.18043165 -0.015827337 0.91798562
-0.1769395 -0.015658364 0.90818506
-0.17537366 -0.015658364 0.90818506
-0.17442857 -0.015714286 0.91142857
-0.17224199 -0.015658364 0.90818506
-0.17007092 -0.015602837 0.90496457
-0.16851065 -0.015602837 0.90496457
-0.16695036 -0.015602837 0.90496457
-0.16480565 -0.015547703 0.90176678
-0.16325088 -0.015547703 0.90176678
-0.16169611 -0.015547703 0.90176678
-0.15957746 -0.015492958 0.89859158
-0.15802817 -0.015492958 0.89859158
-0.15647887 -0.015492958 0.89859158
-0.15492958 -0.015492958 0.89859158
-0.15338027 -0.015492958 0.89859158
-0.15183099 -0.015492958 0.89859158
-0.14975439 -0.015438597 0.89543861
-0.14821053 -0.015438597 0.89543861
-0.14666666 -0.015438597 0.89543861
-0.14512281 -0.015438597 0.89543861
-0.14357895 -0.015438597 0.89543861
-0.14203508 -0.015438597 0.89543861
-0.14049123 -0.015438597 0.89543861
-0.13894737 -0.015438597 0.89543861
-0.1374035 -0.015438597 0.89543861
-0.13585965 -0.015438597 0.89543861
-0.13431579 -0.015438597 0.89543861
-0.13277192 -0.015438597 0.89543861
-0.13122807 -0.015438597 0.89543861
-0.12968421 -0.015438597 0.89543861
-0.12814035 -0.015438597 0.89543861
-0.12704225 -0.015492958 0.89859158
-0.12549296 -0.015492958 0.89859158
-0.12394366 -0.015492958 0.89859158
-0.12196491 -0.015438597 0.89543861
-0.12084507 -0.015492958 0.89859158
-0.11929578 -0.015492958 0.89859158
-0.11774648 -0.015492958 0.89859158
-0.11619718 -0.015492958 0.89859158
-0.11464789 -0.015492958 0.89859158
-0.11309859 -0.015492958 0.89859158
-0.1115493 -0.015492958 0.89859158
-0.10885017 -0.01533101 0.8891986
-0.10731708 -0.01533101 0.8891986
-0.10578397 -0.01533101 0.8891986
-0.10609929 -0.015602837 0.90496457
-0.10416961 -0.015547703 0.90176678
-0.10261484 -0.015547703 0.90176678
-0.10106007 -0.015547703 0.90176678
-0.099505298 -0.015547703 0.90176678
-0.097950533 -0.015547703 0.90176678
-0.096395761 -0.015547703 0.90176678
-0.095516011 -0.015658364 0.90818506
-0.095306858 -0.015884476 0.92129964
-0.09405797 -0.01594203 0.92463768
-0.092799999 -0.016000001 0.92799997
-0.091200002 -0.016000001 0.92799997
-0.089599997 -0.016000001 0.92799997
-0.088321164 -0.016058395 0.93138689
-0.086715326 -0.016058395 0.93138689
-0.085109487 -0.016058395 0.93138689
-0.083503649 -0.016058395 0.93138689
-0.0821978 -0.016117217 0.93479854
-0.080586083 -0.016117217 0.93479854
-0.078974359 -0.016117217 0.93479854
-0.077362634 -0.016117217 0.93479854
-0.076029412 -0.016176471 0.93823528
-0.074686348 -0.016236162 0.94169742
-0.073062733 -0.016236162 0.94169742
-0.071970262 -0.016356878 0.94869888
-0.070334576 -0.016356878 0.94869888
-0.069473684 -0.016541352 0.95939851
-0.067819551 -0.016541352 0.95939851
-0.06616541 -0.016541352 0.95939851
-0.064269662 -0.016479401 0.95580524
-0.06262172 -0.016479401 0.95580524
-0.060973782 -0.016479401 0.95580524
-0.059325844 -0.016479401 0.95580524
-0.057677902 -0.016479401 0.95580524
-0.055820897 -0.016417911 0.9522388
-0.054179106 -0.016417911 0.9522388
-0.052537315 -0.016417911 0.9522388
-0.050895523 -0.016417911 0.9522388
-0.049253732 -0.016417911 0.9522388
-0.047611941 -0.016417911 0.9522388
-0.045970149 -0.016417911 0.9522388
-0.044328358 -0.016417911 0.9522388
-0.042686567 -0.016417911 0.9522388
-0.041044775 -0.016417911 0.9522388
-0.039402984 -0.016417911 0.9522388
-0.037761193 -0.016417911 0.9522388
-0.036254682 -0.016479401 0.95580524
-0.03460674 -0.016479401 0.95580524
-0.032958802 -0.016479401 0.95580524
-0.03131086 -0.016479401 0.95580524
-0.029662922 -0.016479401 0.95580524
0.032713756 -0.016356878 0.94869888
0.034349442 -0.016356878 0.94869888
0.035985131 -0.016356878 0.94869888
0.037620816 -0.016356878 0.94869888
0.039256506 -0.016356878 0.94869888
0.040892195 -0.016356878 0.94869888
0.042686567 -0.016417911 0.9522388
0.044328358 -0.016417911 0.9522388
0.045970149 -0.016417911 0.9522388
0.047611941 -0.016417911 0.9522388
0.053777777 -0.016296295 0.94518518
0.055407409 -0.016296295 0.94518518
0.057037037 -0.016296295 0.94518518
0.058666665 -0.016296295 0.94518518
0.060296297 -0.016296295 0.94518518
0.061925925 -0.016296295 0.94518518
0.063791819 -0.016356878 0.94869888
0.065427512 -0.016356878 0.94869888
0.067063197 -0.016356878 0.94869888
0.068698883 -0.016356878 0.94869888
0.070334576 -0.016356878 0.94869888
0.071970262 -0.016356878 0.94869888
0.073062733 -0.016236162 0.94169742
0.074686348 -0.016236162 0.94169742
0.076309964 -0.016236162 0.94169742
0.076800004 -0.016000001 0.92799997
0.078400001 -0.016000001 0.92799997
0.079999998 -0.016000001 0.92799997
0.081600003 -0.016000001 0.92799997
0.08289855 -0.01594203 0.92463768
0.08449275 -0.01594203 0.92463768
0.085776173 -0.015884476 0.92129964
0.087364621 -0.015884476 0.92129964
0.08895307 -0.015884476 0.92129964
0.090215825 -0.015827337 0.91798562
0.091798559 -0.015827337 0.91798562
0.093381293 -0.015827337 0.91798562
0.092631578 -0.015438597 0.89543861
0.094175436 -0.015438597 0.89543861
0.095384613 -0.015384615 0.8923077
0.096923076 -0.015384615 0.8923077
0.098461539 -0.015384615 0.8923077
0.1 -0.015384615 0.8923077
0.10153846 -0.015384615 0.8923077
0.10130584 -0.015120275 0.87697595
0.10317241 -0.015172414 0.88
0.10468966 -0.015172414 0.88
0.10657439 -0.015224913 0.88304496
0.10847222 -0.015277778 0.88611114
0.11 -0.015277778 0.88611114
0.11191638 -0.01533101 0.8891986
0.11344948 -0.01533101 0.8891986
0.11498258 -0.01533101 0.8891986
0.11611111 -0.015277778 0.88611114
0.11763889 -0.015277778 0.88611114
0.11916666 -0.015277778 0.88611114
0.12069444 -0.015277778 0.88611114
0.12222222 -0.015277778 0.88611114
0.1233218 -0.015224913 0.88304496
0.12484429 -0.015224913 0.88304496
0.12636678 -0.015224913 0.88304496
0.12788928 -0.015224913 0.88304496
0.12941177 -0.015224913 0.88304496
0.13093425 -0.015224913 0.88304496
0.13245675 -0.015224913 0.88304496
0.13397925 -0.015224913 0.88304496
0.13503449 -0.015172414 0.88
0.13655172 -0.015172414 0.88
0.13854672 -0.015224913 0.88304496
0.1400692 -0.015224913 0.88304496
0.14110345 -0.015172414 0.88
0.14311419 -0.015224913 0.88304496
0.14463668 -0.015224913 0.88304496
0.14615917 -0.015224913 0.88304496
0.14717242 -0.015172414 0.88
0.14920415 -0.015224913 0.88304496
0.15072665 -0.015224913 0.88304496
0.15224913 -0.015224913 0.88304496
0.15377162 -0.015224913 0.88304496
0.15529412 -0.015224913 0.88304496
0.1568166 -0.015224913 0.88304496
0.15888889 -0.015277778 0.88611114
0.16041666 -0.015277778 0.88611114
0.16194445 -0.015277778 0.88611114
0.16347222 -0.015277778 0.88611114
0.16557491 -0.01533101 0.8891986
0.16710801 -0.01533101 0.8891986
0.16864112 -0.01533101 0.8891986
0.17076923 -0.015384615 0.8923077
0.17170732 -0.01533101 0.8891986
0.17507042 -0.015492958 0.89859158
0.17661972 -0.015492958 0.89859158
0.17816901 -0.015492958 0.89859158
0.18035336 -0.015547703 0.90176678
0.18255319 -0.015602837 0.90496457
0.18411347 -0.015602837 0.90496457
0.18700001 -0.015714286 0.91142857
0.18857142 -0.015714286 0.91142857
0.19014286 -0.015714286 0.91142857
0.19171429 -0.015714286 0.91142857
-0.18517986 -0.014244604 0.91798562
-0.18359712 -0.014244604 0.91798562
-0.18201439 -0.014244604 0.91798562
-0.17978495 -0.014193549 0.91469532
-0.1769395 -0.014092526 0.90818506
-0.17537366 -0.014092526 0.90818506
-0.17380783 -0.014092526 0.90818506
-0.17224199 -0.014092526 0.90818506
-0.17007092 -0.014042553 0.90496457
-0.16851065 -0.014042553 0.90496457
-0.16695036 -0.014042553 0.90496457
-0.16480565 -0.013992933 0.90176678
-0.16325088 -0.013992933 0.90176678
-0.16112676 -0.013943662 0.89859158
-0.15957746 -0.013943662 0.89859158
-0.15802817 -0.013943662 0.89859158
-0.15647887 -0.013943662 0.89859158
-0.15492958 -0.013943662 0.89859158
-0.15338027 -0.013943662 0.89859158
-0.15129824 -0.013894737 0.89543861
-0.14975439 -0.013894737 0.89543861
-0.14821053 -0.013894737 0.89543861
-0.14666666 -0.013894737 0.89543861
-0.14512281 -0.013894737 0.89543861
-0.14357895 -0.013894737 0.89543861
-0.14203508 -0.013894737 0.89543861
-0.14 -0.013846153 0.8923077
-0.13894737 -0.013894737 0.89543861
-0.1374035 -0.013894737 0.89543861
-0.13585965 -0.013894737 0.89543861
-0.13431579 -0.013894737 0.89543861
-0.13277192 -0.013894737 0.89543861
-0.13122807 -0.013894737 0.89543861
-0.12968421 -0.013894737 0.89543861
-0.12814035 -0.013894737 0.89543861
-0.1265965 -0.013894737 0.89543861
-0.12505263 -0.013894737 0.89543861
-0.12350877 -0.013894737 0.89543861
-0.12196491 -0.013894737 0.89543861
-0.12042105 -0.013894737 0.89543861
-0.11887719 -0.013894737 0.89543861
-0.11774648 -0.013943662 0.89859158
-0.11619718 -0.013943662 0.89859158
-0.11424562 -0.013894737 0.89543861
-0.11309859 -0.013943662 0.89859158
-0.11115789 -0.013894737 0.89543861
-0.10961404 -0.013894737 0.89543861
-0.10731708 -0.013797909 0.8891986
-0.10578397 -0.013797909 0.8891986
-0.10425087 -0.013797909 0.8891986
-0.10380282 -0.013943662 0.89859158
-0.10261484 -0.013992933 0.90176678
-0.10070422 -0.013943662 0.89859158
-0.099505298 -0.013992933 0.90176678
-0.097950533 -0.013992933 0.90176678
-0.096395761 -0.013992933 0.90176678
-0.094840989 -0.013992933 0.90176678
-0.09565217 -0.014347826 0.92463768
-0.09405797 -0.014347826 0.92463768
-0.092463769 -0.014347826 0.92463768
-0.091200002 -0.0144 0.92799997
-0.089599997 -0.0144 0.92799997
-0.088 -0.0144 0.92799997
-0.086400002 -0.0144 0.92799997
-0.084799998 -0.0144 0.92799997
-0.083503649 -0.014452554 0.93138689
-0.08189781 -0.014452554 0.93138689
-0.080586083 -0.014505494 0.93479854
-0.078974359 -0.014505494 0.93479854
-0.077362634 -0.014505494 0.93479854
-0.075750917 -0.014505494 0.93479854
-0.074686348 -0.014612546 0.94169742
-0.073062733 -0.014612546 0.94169742
-0.071970262 -0.01472119 0.94869888
-0.070597015 -0.014776119 0.9522388
-0.06895522 -0.014776119 0.9522388
-0.067819551 -0.014887218 0.95939851
-0.06616541 -0.014887218 0.95939851
-0.06402985 -0.014776119 0.9522388
-0.062388059 -0.014776119 0.9522388
-0.060973782 -0.014831461 0.95580524
-0.059325844 -0.014831461 0.95580524
-0.057677902 -0.014831461 0.95580524
-0.055820897 -0.014776119 0.9522388
-0.054179106 -0.014776119 0.9522388
-0.052537315 -0.014776119 0.9522388
-0.050895523 -0.014776119 0.9522388
-0.049253732 -0.014776119 0.9522388
-0.047611941 -0.014776119 0.9522388
-0.045970149 -0.014776119 0.9522388
-0.044328358 -0.014776119 0.9522388
-0.042686567 -0.014776119 0.9522388
-0.041044775 -0.014776119 0.9522388
-0.039402984 -0.014776119 0.9522388
-0.037761193 -0.014776119 0.9522388
-0.036254682 -0.014831461 0.95580524
-0.03460674 -0.014831461 0.95580524
-0.032958802 -0.014831461 0.95580524
-0.03131086 -0.014831461 0.95580524
-0.029662922 -0.014831461 0.95580524
-0.028014982 -0.014831461 0.95580524
0.032713756 -0.01472119 0.94869888
0.034349442 -0.01472119 0.94869888
0.035985131 -0.01472119 0.94869888
0.037620816 -0.01472119 0.94869888
0.039256506 -0.01472119 0.94869888
0.040892195 -0.01472119 0.94869888
0.042527881 -0.01472119 0.94869888
0.044328358 -0.014776119 0.9522388
0.045970149 -0.014776119 0.9522388
0.047611941 -0.014776119 0.9522388
0.052148148 -0.014666666 0.94518518
0.053777777 -0.014666666 0.94518518
0.055407409 -0.014666666 0.94518518
0.057037037 -0.014666666 0.94518518
0.058666665 -0.014666666 0.94518518
0.060296297 -0.014666666 0.94518518
0.061925925 -0.014666666 0.94518518
0.063791819 -0.01472119 0.94869888
0.065427512 -0.01472119 0.94869888
0.067063197 -0.01472119 0.94869888
0.068698883 -0.01472119 0.94869888
0.070334576 -0.01472119 0.94869888
0.071970262 -0.01472119 0.94869888
0.073605947 -0.01472119 0.94869888
0.074686348 -0.014612546 0.94169742
0.076309964 -0.014612546 0.94169742
0.076800004 -0.0144 0.92799997
0.078400001 -0.0144 0.92799997
0.079710148 -0.014347826 0.92463768
0.081304349 -0.014347826 0.92463768
0.082599275 -0.014296029 0.92129964
0.084187724 -0.014296029 0.92129964
0.085467629 -0.014244604 0.91798562
0.087364621 -0.014296029 0.92129964
0.08895307 -0.014296029 0.92129964
0.090215825 -0.014244604 0.91798562
0.091798559 -0.014244604 0.91798562
0.093381293 -0.014244604 0.91798562
0.09198606 -0.013797909 0.8891986
0.093846157 -0.013846153 0.8923077
0.095384613 -0.013846153 0.8923077
0.096923076 -0.013846153 0.8923077
0.098118469 -0.013797909 0.8891986
0.1 -0.013846153 0.8923077
0.099793814 -0.013608247 0.87697595
0.10130584 -0.013608247 0.87697595
0.10281787 -0.013608247 0.87697595
0.10468966 -0.013655173 0.88
0.10657439 -0.013702422 0.88304496
0.10809688 -0.013702422 0.88304496
0.11 -0.01375 0.88611114
0.11152778 -0.01375 0.88611114
0.11344948 -0.013797909 0.8891986
0.11458334 -0.01375 0.88611114
0.11611111 -0.01375 0.88611114
0.11723183 -0.013702422 0.88304496
0.11875433 -0.013702422 0.88304496
0.12069444 -0.01375 0.88611114
0.12179931 -0.013702422 0.88304496
0.1233218 -0.013702422 0.88304496
0.12484429 -0.013702422 0.88304496
0.12636678 -0.013702422 0.88304496
0.12744828 -0.013655173 0.88
0.12896551 -0.013655173 0.88
0.13048276 -0.013655173 0.88
0.132 -0.013655173 0.88
0.13351724 -0.013655173 0.88
0.13503449 -0.013655173 0.88
0.13655172 -0.013655173 0.88
0.13806896 -0.013655173 0.88
0.13958621 -0.013655173 0.88
0.14110345 -0.013655173 0.88
0.14262068 -0.013655173 0.88
0.14413793 -0.013655173 0.88
0.14565517 -0.013655173 0.88
0.14717242 -0.013655173 0.88
0.14868966 -0.013655173 0.88
0.15072665 -0.013702422 0.88304496
0.15224913 -0.013702422 0.88304496
0.15377162 -0.013702422 0.88304496
0.15529412 -0.013702422 0.88304496
0.1568166 -0.013702422 0.88304496
0.1583391 -0.013702422 0.88304496
0.15986159 -0.013702422 0.88304496
0.16194445 -0.01375 0.88611114
0.16347222 -0.01375 0.88611114
0.16500001 -0.01375 0.88611114
0.16710801 -0.013797909 0.8891986
0.16864112 -0.013797909 0.8891986
0.17017421 -0.013797909 0.8891986
0.17170732 -0.013797909 0.8891986
0.17324042 -0.013797909 0.8891986
0.17661972 -0.013943662 0.89859158
0.17816901 -0.013943662 0.89859158
0.18035336 -0.013992933 0.90176678
0.18190813 -0.013992933 0.90176678
0.18411347 -0.014042553 0.90496457
0.18700001 -0.014142857 0.91142857
0.18857142 -0.014142857 0.91142857
0.19014286 -0.014142857 0.91142857
0.19171429 -0.014142857 0.91142857
0.19328572 -0.014142857 0.91142857
-0.18676259 -0.012661871 0.91798562
-0.18451613 -0.012616487 0.91469532
-0.18293907 -0.012616487 0.91469532
-0.181362 -0.012616487 0.91469532
-0.17978495 -0.012616487 0.91469532
-0.17820789 -0.012616487 0.91469532
-0.17537366 -0.01252669 0.90818506
-0.17380783 -0.01252669 0.90818506
-0.17224199 -0.01252669 0.90818506
-0.17007092 -0.01248227 0.90496457
-0.16851065 -0.01248227 0.90496457
-0.16695036 -0.01248227 0.90496457
-0.16422535 -0.012394366 0.89859158
-0.16267605 -0.012394366 0.89859158
-0.16112676 -0.012394366 0.89859158
-0.15957746 -0.012394366 0.89859158
-0.15747368 -0.012350877 0.89543861
-0.15592982 -0.012350877 0.89543861
-0.15438597 -0.012350877 0.89543861
-0.1528421 -0.012350877 0.89543861
-0.15129824 -0.012350877 0.89543861
-0.14975439 -0.012350877 0.89543861
-0.14821053 -0.012350877 0.89543861
-0.14666666 -0.012350877 0.89543861
-0.14461538 -0.012307692 0.8923077
-0.14357895 -0.012350877 0.89543861
-0.14153846 -0.012307692 0.8923077
-0.14 -0.012307692 0.8923077
-0.13846155 -0.012307692 0.8923077
-0.13692307 -0.012307692 0.8923077
-0.13538462 -0.012307692 0.8923077
-0.13431579 -0.012350877 0.89543861
-0.13230769 -0.012307692 0.8923077
-0.13076924 -0.012307692 0.8923077
-0.12968421 -0.012350877 0.89543861
-0.12814035 -0.012350877 0.89543861
-0.1265965 -0.012350877 0.89543861
-0.12505263 -0.012350877 0.89543861
-0.12350877 -0.012350877 0.89543861
-0.12196491 -0.012350877 0.89543861
-0.12042105 -0.012350877 0.89543861
-0.11887719 -0.012350877 0.89543861
-0.11733333 -0.012350877 0.89543861
-0.11578947 -0.012350877 0.89543861
-0.11424562 -0.012350877 0.89543861
-0.11270175 -0.012350877 0.89543861
-0.1115493 -0.012394366 0.89859158
-0.10961404 -0.012350877 0.89543861
-0.10731708 -0.012264809 0.8891986
-0.10578397 -0.012264809 0.8891986
-0.10425087 -0.012264809 0.8891986
-0.10380282 -0.012394366 0.89859158
-0.10225352 -0.012394366 0.89859158
-0.10070422 -0.012394366 0.89859158
-0.099154927 -0.012394366 0.89859158
-0.097950533 -0.012438162 0.90176678
-0.096395761 -0.012438162 0.90176678
-0.094507039 -0.012394366 0.89859158
-0.09565217 -0.012753624 0.92463768
-0.09405797 -0.012753624 0.92463768
-0.092463769 -0.012753624 0.92463768
-0.090869568 -0.012753624 0.92463768
-0.08927536 -0.012753624 0.92463768
-0.088 -0.0128 0.92799997
-0.086400002 -0.0128 0.92799997
-0.084799998 -0.0128 0.92799997
-0.083503649 -0.012846716 0.93138689
-0.08189781 -0.012846716 0.93138689
-0.080291972 -0.012846716 0.93138689
-0.078686133 -0.012846716 0.93138689
-0.077362634 -0.012893773 0.93479854
-0.075474456 -0.012846716 0.93138689
-0.07386861 -0.012846716 0.93138689
-0.073605947 -0.013085502 0.94869888
-0.071970262 -0.013085502 0.94869888
-0.070597015 -0.013134329 0.9522388
-0.06895522 -0.013134329 0.9522388
-0.067313433 -0.013134329 0.9522388
-0.065671645 -0.013134329 0.9522388
-0.06402985 -0.013134329 0.9522388
-0.062388059 -0.013134329 0.9522388
-0.060746267 -0.013134329 0.9522388
-0.059104476 -0.013134329 0.9522388
-0.057462685 -0.013134329 0.9522388
-0.055820897 -0.013134329 0.9522388
-0.054179106 -0.013134329 0.9522388
-0.052537315 -0.013134329 0.9522388
-0.050895523 -0.013134329 0.9522388
-0.049253732 -0.013134329 0.9522388
-0.047611941 -0.013134329 0.9522388
-0.045970149 -0.013134329 0.9522388
-0.044328358 -0.013134329 0.9522388
-0.042686567 -0.013134329 0.9522388
-0.041044775 -0.013134329 0.9522388
-0.039402984 -0.013134329 0.9522388
-0.037761193 -0.013134329 0.9522388
-0.036119401 -0.013134329 0.9522388
-0.03447761 -0.013134329 0.9522388
-0.032958802 -0.01318352 0.95580524
-0.03131086 -0.01318352 0.95580524
-0.029662922 -0.01318352 0.95580524
0.029442379 -0.013085502 0.94869888
0.031078067 -0.013085502 0.94869888
0.032713756 -0.013085502 0.94869888
0.034349442 -0.013085502 0.94869888
0.035985131 -0.013085502 0.94869888
0.037620816 -0.013085502 0.94869888
0.039256506 -0.013085502 0.94869888
0.040892195 -0.013085502 0.94869888
0.042527881 -0.013085502 0.94869888
0.044 -0.013037037 0.94518518
0.045629628 -0.013037037 0.94518518
0.047084872 -0.01298893 0.94169742
0.048708487 -0.01298893 0.94169742
0.050332103 -0.01298893 0.94169742
0.051955719 -0.01298893 0.94169742
0.053579334 -0.01298893 0.94169742
0.055407409 -0.013037037 0.94518518
0.057037037 -0.013037037 0.94518518
0.058666665 -0.013037037 0.94518518
0.060296297 -0.013037037 0.94518518
0.061925925 -0.013037037 0.94518518
0.063791819 -0.013085502 0.94869888
0.065427512 -0.013085502 0.94869888
0.066814817 -0.013037037 0.94518518
0.068444446 -0.013037037 0.94518518
0.070334576 -0.013085502 0.94869888
0.071970262 -0.013085502 0.94869888
0.073062733 -0.01298893 0.94169742
0.074411765 -0.012941176 0.93823528
0.076029412 -0.012941176 0.93823528
0.076521739 -0.012753624 0.92463768
0.07811594 -0.012753624 0.92463768
0.079710148 -0.012753624 0.92463768
0.081010833 -0.012707581 0.92129964
0.082599275 -0.012707581 0.92129964
0.084187724 -0.012707581 0.92129964
0.085467629 -0.012661871 0.91798562
0.087050363 -0.012661871 0.91798562
0.08863309 -0.012661871 0.91798562
0.089892477 -0.012616487 0.91469532
0.091469534 -0.012616487 0.91469532
0.093046598 -0.012616487 0.91469532
0.09198606 -0.012264809 0.8891986
0.093519166 -0.012264809 0.8891986
0.095384613 -0.012307692 0.8923077
0.096923076 -0.012307692 0.8923077
0.098118469 -0.012264809 0.8891986
0.099651568 -0.012264809 0.8891986
0.099793814 -0.01209622 0.87697595
0.10130584 -0.01209622 0.87697595
0.10317241 -0.012137931 0.88
0.10468966 -0.012137931 0.88
0.10657439 -0.012179931 0.88304496
0.10809688 -0.012179931 0.88304496
0.11 -0.012222222 0.88611114
0.11152778 -0.012222222 0.88611114
0.11305556 -0.012222222 0.88611114
0.11458334 -0.012222222 0.88611114
0.11611111 -0.012222222 0.88611114
0.11723183 -0.012179931 0.88304496
0.11875433 -0.012179931 0.88304496
0.12027682 -0.012179931 0.88304496
0.12179931 -0.012179931 0.88304496
0.12289655 -0.012137931 0.88
0.1244138 -0.012137931 0.88
0.12593104 -0.012137931 0.88
0.12744828 -0.012137931 0.88
0.12896551 -0.012137931 0.88
0.13048276 -0.012137931 0.88
0.132 -0.012137931 0.88
0.13351724 -0.012137931 0.88
0.13503449 -0.012137931 0.88
0.13655172 -0.012137931 0.88
0.13806896 -0.012137931 0.88
0.13958621 -0.012137931 0.88
0.14110345 -0.012137931 0.88
0.14262068 -0.012137931 0.88
0.14413793 -0.012137931 0.88
0.14565517 -0.012137931 0.88
0.14717242 -0.012137931 0.88
0.14868966 -0.012137931 0.88
0.15020689 -0.012137931 0.88
0.15224913 -0.012179931 0.88304496
0.15377162 -0.012179931 0.88304496
0.15529412 -0.012179931 0.88304496
0.1568166 -0.012179931 0.88304496
0.1583391 -0.012179931 0.88304496
0.15986159 -0.012179931 0.88304496
0.16194445 -0.012222222 0.88611114
0.16347222 -0.012222222 0.88611114
0.16500001 -0.012222222 0.88611114
0.16710801 -0.012264809 0.8891986
0.16864112 -0.012264809 0.8891986
0.17017421 -0.012264809 0.8891986
0.17170732 -0.012264809 0.8891986
0.17324042 -0.012264809 0.8891986
0.176 -0.012350877 0.89543861
0.17754386 -0.012350877 0.89543861
0.17908771 -0.012350877 0.89543861
0.18190813 -0.012438162 0.90176678
0.1834629 -0.012438162 0.90176678
0.18501768 -0.012438162 0.90176678
0.18857142 -0.012571429 0.91142857
0.19014286 -0.012571429 0.91142857
0.19171429 -0.012571429 0.91142857
0.19328572 -0.012571429 0.91142857
-0.18676259 -0.011079136 0.91798562
-0.18517986 -0.011079136 0.91798562
-0.18359712 -0.011079136 0.91798562
-0.181362 -0.011039427 0.91469532
-0.17978495 -0.011039427 0.91469532
-0.17757143 -0.011 0.91142857
-0.17537366 -0.010960854 0.90818506
-0.17380783 -0.010960854 0.90818506
-0.1716312 -0.010921986 0.90496457
-0.17007092 -0.010921986 0.90496457
-0.16851065 -0.010921986 0.90496457
-0.16577464 -0.010845071 0.89859158
-0.16422535 -0.010845071 0.89859158
-0.16267605 -0.010845071 0.89859158
-0.16112676 -0.010845071 0.89859158
-0.15957746 -0.010845071 0.89859158
-0.15747368 -0.010807018 0.89543861
-0.15592982 -0.010807018 0.89543861
-0.15438597 -0.010807018 0.89543861
-0.1528421 -0.010807018 0.89543861
-0.15129824 -0.010807018 0.89543861
-0.14923076 -0.01076923 0.8923077
-0.14769231 -0.01076923 0.8923077
-0.14666666 -0.010807018 0.89543861
-0.14461538 -0.01076923 0.8923077
-0.14307693 -0.01076923 0.8923077
-0.14153846 -0.01076923 0.8923077
-0.14 -0.01076923 0.8923077
-0.13846155 -0.01076923 0.8923077
-0.13692307 -0.01076923 0.8923077
-0.13538462 -0.01076923 0.8923077
-0.13384615 -0.01076923 0.8923077
-0.13230769 -0.01076923 0.8923077
-0.13076924 -0.01076923 0.8923077
-0.12923077 -0.01076923 0.8923077
-0.12769231 -0.01076923 0.8923077
-0.12615384 -0.01076923 0.8923077
-0.12461539 -0.01076923 0.8923077
-0.12350877 -0.010807018 0.89543861
-0.12153846 -0.01076923 0.8923077
-0.12042105 -0.010807018 0.89543861
-0.11846154 -0.01076923 0.8923077
-0.11733333 -0.010807018 0.89543861
-0.11578947 -0.010807018 0.89543861
-0.11424562 -0.010807018 0.89543861
-0.11270175 -0.010807018 0.89543861
-0.1115493 -0.010845071 0.89859158
-0.11 -0.010845071 0.89859158
