ply
format ascii 1.0
comment PCL generated
element vertex 1341
property float x
property float y
property float z
element camera 0
property float view_px
property float view_py
property float view_pz
property float x_axisx
property float x_axisy
property float x_axisz
property float y_axisx
property float y_axisy
property float y_axisz
property float z_axisx
property float z_axisy
property float z_axisz
property float focal
property float scalex
property float scaley
property float centerx
property float centery
property int viewportx
property int viewporty
property float k1
property float k2
end_header
-0.041825093 -0.033460077 0.97034222
-0.040152092 -0.033460077 0.97034222
-0.038479086 -0.033460077 0.97034222
-0.036806084 -0.033460077 0.97034222
-0.035133079 -0.033460077 0.97034222
-0.033460077 -0.033460077 0.97034222
-0.031787071 -0.033460077 0.97034222
-0.030114068 -0.033460077 0.97034222
-0.028441064 -0.033460077 0.97034222
-0.02676806 -0.033460077 0.97034222
-0.025095057 -0.033460077 0.97034222
-0.023422053 -0.033460077 0.97034222
-0.021749049 -0.033460077 0.97034222
-0.020076046 -0.033460077 0.97034222
-0.018403042 -0.033460077 0.97034222
-0.016730038 -0.033460077 0.97034222
-0.015057034 -0.033460077 0.97034222
-0.01338403 -0.033460077 0.97034222
-0.011711027 -0.033460077 0.97034222
-0.010038023 -0.033460077 0.97034222
0.026870228 -0.033587787 0.97404581
0.028549619 -0.033587787 0.97404581
0.030229008 -0.033587787 0.97404581
0.031787071 -0.033460077 0.97034222
0.033460077 -0.033460077 0.97034222
0.035133079 -0.033460077 0.97034222
0.036666665 -0.033333335 0.96666664
0.038333334 -0.033333335 0.96666664
0.039999999 -0.033333335 0.96666664
0.041666668 -0.033333335 0.96666664
0.043333333 -0.033333335 0.96666664
0.045000002 -0.033333335 0.96666664
0.046666667 -0.033333335 0.96666664
0.048333332 -0.033333335 0.96666664
0.050000001 -0.033333335 0.96666664
0.051666666 -0.033333335 0.96666664
0.053333335 -0.033333335 0.96666664
0.055 -0.033333335 0.96666664
0.056666669 -0.033333335 0.96666664
0.058333334 -0.033333335 0.96666664
0.059773587 -0.033207547 0.96301889
0.061666667 -0.033333335 0.96666664
0.063333333 -0.033333335 0.96666664
0.064999998 -0.033333335 0.96666664
0.06666667 -0.033333335 0.96666664
0.068075471 -0.033207547 0.96301889
0.069735847 -0.033207547 0.96301889
0.071396224 -0.033207547 0.96301889
0.07333333 -0.033333335 0.96666664
0.074716978 -0.033207547 0.96301889
0.076377362 -0.033207547 0.96301889
0.078037739 -0.033207547 0.96301889
0.079398498 -0.033082705 0.95939851
0.081052631 -0.033082705 0.95939851
0.082397006 -0.032958802 0.95580524
0.083731346 -0.032835823 0.9522388
0.085055761 -0.032713756 0.94869888
0.086370371 -0.032592591 0.94518518
0.087675273 -0.032472324 0.94169742
0.089298896 -0.032472324 0.94169742
0.090588234 -0.032352943 0.93823528
0.092205882 -0.032352943 0.93823528
0.09382353 -0.032352943 0.93823528
0.095441177 -0.032352943 0.93823528
0.096703298 -0.032234434 0.93479854
0.098315015 -0.032234434 0.93479854
0.099562041 -0.032116789 0.93138689
0.10116788 -0.032116789 0.93138689
0.10277373 -0.032116789 0.93138689
0.10437956 -0.032116789 0.93138689
0.1059854 -0.032116789 0.93138689
0.10681159 -0.031884059 0.92463768
0.10647687 -0.031316727 0.90818506
0.1080427 -0.031316727 0.90818506
0.10960854 -0.031316727 0.90818506
0.11078014 -0.031205675 0.90496457
0.11234043 -0.031205675 0.90496457
0.11390071 -0.031205675 0.90496457
0.11546099 -0.031205675 0.90496457
0.11702128 -0.031205675 0.90496457
0.11858156 -0.031205675 0.90496457
0.11846154 -0.030769231 0.8923077
0.12042105 -0.030877193 0.89543861
0.12239437 -0.030985916 0.89859158
0.12438162 -0.031095406 0.90176678
0.12593639 -0.031095406 0.90176678
0.12749116 -0.031095406 0.90176678
0.12904593 -0.031095406 0.90176678
0.13014084 -0.030985916 0.89859158
0.13169014 -0.030985916 0.89859158
0.13323943 -0.030985916 0.89859158
0.13478874 -0.030985916 0.89859158
0.13585965 -0.030877193 0.89543861
0.1374035 -0.030877193 0.89543861
0.13894737 -0.030877193 0.89543861
0.14049123 -0.030877193 0.89543861
0.14203508 -0.030877193 0.89543861
0.14357895 -0.030877193 0.89543861
0.14512281 -0.030877193 0.89543861
0.14666666 -0.030877193 0.89543861
0.14821053 -0.030877193 0.89543861
0.14975439 -0.030877193 0.89543861
0.15129824 -0.030877193 0.89543861
0.1528421 -0.030877193 0.89543861
0.15438597 -0.030877193 0.89543861
0.15538462 -0.030769231 0.8923077
0.15692307 -0.030769231 0.8923077
0.15846154 -0.030769231 0.8923077
0.1605614 -0.030877193 0.89543861
0.16210526 -0.030877193 0.89543861
0.16364913 -0.030877193 0.89543861
0.16519298 -0.030877193 0.89543861
0.16673684 -0.030877193 0.89543861
0.16828071 -0.030877193 0.89543861
0.17042254 -0.030985916 0.89859158
0.17197183 -0.030985916 0.89859158
0.17352113 -0.030985916 0.89859158
0.17507042 -0.030985916 0.89859158
0.17724381 -0.031095406 0.90176678
0.17879859 -0.031095406 0.90176678
0.18035336 -0.031095406 0.90176678
0.18255319 -0.031205675 0.90496457
0.18411347 -0.031205675 0.90496457
0.18567376 -0.031205675 0.90496457
0.18857142 -0.031428572 0.91142857
0.19014286 -0.031428572 0.91142857
0.19171429 -0.031428572 0.91142857
0.19328572 -0.031428572 0.91142857
0.19696751 -0.031768952 0.92129964
0.19855596 -0.031768952 0.92129964
0.20014441 -0.031768952 0.92129964
-0.17824818 -0.030510949 0.93138689
-0.17664233 -0.030510949 0.93138689
-0.17503649 -0.030510949 0.93138689
-0.17343065 -0.030510949 0.93138689
-0.17057972 -0.030289855 0.92463768
-0.1689855 -0.030289855 0.92463768
-0.1673913 -0.030289855 0.92463768
-0.16519855 -0.030180505 0.92129964
-0.16361012 -0.030180505 0.92129964
-0.16086021 -0.029964158 0.91469532
-0.15928316 -0.029964158 0.91469532
-0.1577061 -0.029964158 0.91469532
-0.15612903 -0.029964158 0.91469532
-0.154 -0.029857144 0.91142857
-0.1529749 -0.029964158 0.91469532
-0.15085714 -0.029857144 0.91142857
-0.14928572 -0.029857144 0.91142857
-0.14771429 -0.029857144 0.91142857
-0.14614286 -0.029857144 0.91142857
-0.14457142 -0.029857144 0.91142857
-0.14300001 -0.029857144 0.91142857
-0.14142857 -0.029857144 0.91142857
-0.13935943 -0.029750889 0.90818506
-0.1377936 -0.029750889 0.90818506
-0.13622776 -0.029750889 0.90818506
-0.13466193 -0.029750889 0.90818506
-0.13309608 -0.029750889 0.90818506
-0.13153026 -0.029750889 0.90818506
-0.12996441 -0.029750889 0.90818506
-0.12839858 -0.029750889 0.90818506
-0.12683274 -0.029750889 0.90818506
-0.12526691 -0.029750889 0.90818506
-0.12370107 -0.029750889 0.90818506
-0.12257143 -0.029857144 0.91142857
-0.12056939 -0.029750889 0.90818506
-0.11942858 -0.029857144 0.91142857
-0.11785714 -0.029857144 0.91142857
-0.11628571 -0.029857144 0.91142857
-0.11471429 -0.029857144 0.91142857
-0.11314286 -0.029857144 0.91142857
-0.11157143 -0.029857144 0.91142857
-0.11 -0.029857144 0.91142857
-0.10842858 -0.029857144 0.91142857
-0.10572438 -0.029540636 0.90176678
-0.10416961 -0.029540636 0.90176678
-0.10408602 -0.029964158 0.91469532
-0.10250896 -0.029964158 0.91469532
-0.1009319 -0.029964158 0.91469532
-0.099354841 -0.029964158 0.91469532
-0.097777776 -0.029964158 0.91469532
-0.096200719 -0.029964158 0.91469532
-0.094623655 -0.029964158 0.91469532
-0.093046598 -0.029964158 0.91469532
-0.091469534 -0.029964158 0.91469532
-0.090541519 -0.030180505 0.92129964
-0.089599997 -0.030400001 0.92799997
-0.088321164 -0.030510949 0.93138689
-0.086715326 -0.030510949 0.93138689
-0.085735291 -0.030735293 0.93823528
-0.084428042 -0.030848708 0.94169742
-0.082804427 -0.030848708 0.94169742
-0.081180811 -0.030848708 0.94169742
-0.079557195 -0.030848708 0.94169742
-0.07793358 -0.030848708 0.94169742
-0.076592594 -0.030962963 0.94518518
-0.074962966 -0.030962963 0.94518518
-0.073605947 -0.031078067 0.94869888
-0.071970262 -0.031078067 0.94869888
-0.070334576 -0.031078067 0.94869888
-0.068698883 -0.031078067 0.94869888
-0.067313433 -0.031194029 0.9522388
-0.065671645 -0.031194029 0.9522388
-0.06402985 -0.031194029 0.9522388
-0.062857144 -0.031428572 0.95939851
-0.061433963 -0.03154717 0.96301889
-0.059999999 -0.031666666 0.96666664
-0.058333334 -0.031666666 0.96666664
-0.056882128 -0.031787071 0.97034222
-0.055209126 -0.031787071 0.97034222
-0.053536121 -0.031787071 0.97034222
-0.051863119 -0.031787071 0.97034222
-0.050190113 -0.031787071 0.97034222
-0.048517112 -0.031787071 0.97034222
-0.046844106 -0.031787071 0.97034222
-0.045171104 -0.031787071 0.97034222
-0.043498099 -0.031787071 0.97034222
-0.041825093 -0.031787071 0.97034222
-0.040152092 -0.031787071 0.97034222
-0.038479086 -0.031787071 0.97034222
-0.036806084 -0.031787071 0.97034222
-0.035133079 -0.031787071 0.97034222
-0.033460077 -0.031787071 0.97034222
-0.031787071 -0.031787071 0.97034222
-0.030114068 -0.031787071 0.97034222
-0.028441064 -0.031787071 0.97034222
-0.026666667 -0.031666666 0.96666664
-0.025 -0.031666666 0.96666664
-0.023422053 -0.031787071 0.97034222
-0.021749049 -0.031787071 0.97034222
-0.020076046 -0.031787071 0.97034222
-0.018403042 -0.031787071 0.97034222
-0.016730038 -0.031787071 0.97034222
-0.015057034 -0.031787071 0.97034222
-0.01338403 -0.031787071 0.97034222
-0.011711027 -0.031787071 0.97034222
0.030229008 -0.031908397 0.97404581
0.031787071 -0.031787071 0.97034222
0.033460077 -0.031787071 0.97034222
0.035133079 -0.031787071 0.97034222
0.036806084 -0.031787071 0.97034222
0.038333334 -0.031666666 0.96666664
0.039999999 -0.031666666 0.96666664
0.041509435 -0.03154717 0.96301889
0.043333333 -0.031666666 0.96666664
0.045000002 -0.031666666 0.96666664
0.046666667 -0.031666666 0.96666664
0.048333332 -0.031666666 0.96666664
0.050000001 -0.031666666 0.96666664
0.051471699 -0.03154717 0.96301889
0.053132076 -0.03154717 0.96301889
0.054792453 -0.03154717 0.96301889
0.056452829 -0.03154717 0.96301889
0.058113206 -0.03154717 0.96301889
0.059773587 -0.03154717 0.96301889
0.061433963 -0.03154717 0.96301889
0.06309434 -0.03154717 0.96301889
0.064754717 -0.03154717 0.96301889
0.066415094 -0.03154717 0.96301889
0.068075471 -0.03154717 0.96301889
0.069735847 -0.03154717 0.96301889
0.071396224 -0.03154717 0.96301889
0.073056601 -0.03154717 0.96301889
0.074716978 -0.03154717 0.96301889
0.076377362 -0.03154717 0.96301889
0.078037739 -0.03154717 0.96301889
0.079398498 -0.031428572 0.95939851
0.081052631 -0.031428572 0.95939851
0.082706764 -0.031428572 0.95939851
0.083731346 -0.031194029 0.9522388
0.085055761 -0.031078067 0.94869888
0.086691447 -0.031078067 0.94869888
0.087675273 -0.030848708 0.94169742
0.089298896 -0.030848708 0.94169742
0.090588234 -0.030735293 0.93823528
0.092205882 -0.030735293 0.93823528
0.09382353 -0.030735293 0.93823528
0.095091574 -0.030622711 0.93479854
0.096703298 -0.030622711 0.93479854
0.098315015 -0.030622711 0.93479854
0.099562041 -0.030510949 0.93138689
0.10116788 -0.030510949 0.93138689
0.10277373 -0.030510949 0.93138689
0.10437956 -0.030510949 0.93138689
0.1056 -0.030400001 0.92799997
0.1072 -0.030400001 0.92799997
0.10647687 -0.029750889 0.90818506
0.1080427 -0.029750889 0.90818506
0.10960854 -0.029750889 0.90818506
0.11078014 -0.029645391 0.90496457
0.11234043 -0.029645391 0.90496457
0.11390071 -0.029645391 0.90496457
0.11546099 -0.029645391 0.90496457
0.11660777 -0.029540636 0.90176678
0.11858156 -0.029645391 0.90496457
0.11846154 -0.02923077 0.8923077
0.12042105 -0.029333333 0.89543861
0.12196491 -0.029333333 0.89543861
0.12438162 -0.029540636 0.90176678
0.12593639 -0.029540636 0.90176678
0.12749116 -0.029540636 0.90176678
0.12904593 -0.029540636 0.90176678
0.12968421 -0.029333333 0.89543861
0.13122807 -0.029333333 0.89543861
0.13323943 -0.02943662 0.89859158
0.13478874 -0.02943662 0.89859158
0.13585965 -0.029333333 0.89543861
0.1374035 -0.029333333 0.89543861
0.13894737 -0.029333333 0.89543861
0.14049123 -0.029333333 0.89543861
0.14203508 -0.029333333 0.89543861
0.14307693 -0.02923077 0.8923077
0.14512281 -0.029333333 0.89543861
0.14666666 -0.029333333 0.89543861
0.14769231 -0.02923077 0.8923077
0.14923076 -0.02923077 0.8923077
0.15129824 -0.029333333 0.89543861
0.1528421 -0.029333333 0.89543861
0.15384616 -0.02923077 0.8923077
0.15538462 -0.02923077 0.8923077
0.15692307 -0.02923077 0.8923077
0.15846154 -0.02923077 0.8923077
0.16 -0.02923077 0.8923077
0.16210526 -0.029333333 0.89543861
0.16364913 -0.029333333 0.89543861
0.16519298 -0.029333333 0.89543861
0.16673684 -0.029333333 0.89543861
0.16828071 -0.029333333 0.89543861
0.17042254 -0.02943662 0.89859158
0.17197183 -0.02943662 0.89859158
0.17352113 -0.02943662 0.89859158
0.17507042 -0.02943662 0.89859158
0.17661972 -0.02943662 0.89859158
0.17879859 -0.029540636 0.90176678
0.18035336 -0.029540636 0.90176678
0.18190813 -0.029540636 0.90176678
0.18411347 -0.029645391 0.90496457
0.18633452 -0.029750889 0.90818506
0.18790035 -0.029750889 0.90818506
0.18946619 -0.029750889 0.90818506
0.19171429 -0.029857144 0.91142857
0.19397849 -0.029964158 0.91469532
0.19696751 -0.030180505 0.92129964
0.19855596 -0.030180505 0.92129964
0.20014441 -0.030180505 0.92129964
0.20173286 -0.030180505 0.92129964
-0.17985402 -0.028905109 0.93138689
-0.17824818 -0.028905109 0.93138689
-0.17664233 -0.028905109 0.93138689
-0.17503649 -0.028905109 0.93138689
-0.17343065 -0.028905109 0.93138689
-0.17120001 -0.0288 0.92799997
-0.1689855 -0.028695652 0.92463768
-0.166787 -0.028592058 0.92129964
-0.16519855 -0.028592058 0.92129964
-0.16302158 -0.028489208 0.91798562
-0.16086021 -0.028387098 0.91469532
-0.15928316 -0.028387098 0.91469532
-0.1577061 -0.028387098 0.91469532
-0.15612903 -0.028387098 0.91469532
-0.154 -0.028285714 0.91142857
-0.15242857 -0.028285714 0.91142857
-0.15085714 -0.028285714 0.91142857
-0.14928572 -0.028285714 0.91142857
-0.14771429 -0.028285714 0.91142857
-0.14614286 -0.028285714 0.91142857
-0.14405695 -0.028185053 0.90818506
-0.1424911 -0.028185053 0.90818506
-0.14092527 -0.028185053 0.90818506
-0.13935943 -0.028185053 0.90818506
-0.1377936 -0.028185053 0.90818506
-0.13622776 -0.028185053 0.90818506
-0.13466193 -0.028185053 0.90818506
-0.13262412 -0.028085107 0.90496457
-0.13153026 -0.028185053 0.90818506
-0.12996441 -0.028185053 0.90818506
-0.12839858 -0.028185053 0.90818506
-0.12683274 -0.028185053 0.90818506
-0.12526691 -0.028185053 0.90818506
-0.12370107 -0.028185053 0.90818506
-0.12213523 -0.028185053 0.90818506
-0.12056939 -0.028185053 0.90818506
-0.11900356 -0.028185053 0.90818506
-0.11743772 -0.028185053 0.90818506
-0.11587188 -0.028185053 0.90818506
-0.11430605 -0.028185053 0.90818506
-0.11314286 -0.028285714 0.91142857
-0.11157143 -0.028285714 0.91142857
-0.11 -0.028285714 0.91142857
-0.10842858 -0.028285714 0.91142857
-0.10685714 -0.028285714 0.91142857
-0.10416961 -0.027985865 0.90176678
-0.10408602 -0.028387098 0.91469532
-0.10214286 -0.028285714 0.91142857
-0.10057143 -0.028285714 0.91142857
-0.099354841 -0.028387098 0.91469532
-0.097777776 -0.028387098 0.91469532
-0.096200719 -0.028387098 0.91469532
-0.094623655 -0.028387098 0.91469532
-0.093046598 -0.028387098 0.91469532
-0.091469534 -0.028387098 0.91469532
-0.089892477 -0.028387098 0.91469532
-0.08927536 -0.028695652 0.92463768
-0.088321164 -0.028905109 0.93138689
-0.086715326 -0.028905109 0.93138689
-0.085735291 -0.029117648 0.93823528
-0.084117644 -0.029117648 0.93823528
-0.082500003 -0.029117648 0.93823528
-0.080882356 -0.029117648 0.93823528
-0.079557195 -0.029225092 0.94169742
-0.07793358 -0.029225092 0.94169742
-0.076592594 -0.029333333 0.94518518
-0.074962966 -0.029333333 0.94518518
-0.07333333 -0.029333333 0.94518518
-0.071703702 -0.029333333 0.94518518
-0.070334576 -0.029442379 0.94869888
-0.068698883 -0.029442379 0.94869888
-0.067313433 -0.029552238 0.9522388
-0.065671645 -0.029552238 0.9522388
-0.06402985 -0.029552238 0.9522388
-0.062857144 -0.029774437 0.95939851
-0.061203007 -0.029774437 0.95939851
-0.059999999 -0.029999999 0.96666664
-0.058333334 -0.029999999 0.96666664
-0.056882128 -0.030114068 0.97034222
-0.055209126 -0.030114068 0.97034222
-0.053536121 -0.030114068 0.97034222
-0.051863119 -0.030114068 0.97034222
-0.050190113 -0.030114068 0.97034222
-0.048333332 -0.029999999 0.96666664
-0.046666667 -0.029999999 0.96666664
-0.045171104 -0.030114068 0.97034222
-0.043498099 -0.030114068 0.97034222
-0.041825093 -0.030114068 0.97034222
-0.040152092 -0.030114068 0.97034222
-0.038479086 -0.030114068 0.97034222
-0.036806084 -0.030114068 0.97034222
-0.035 -0.029999999 0.96666664
-0.033333335 -0.029999999 0.96666664
-0.031666666 -0.029999999 0.96666664
-0.029999999 -0.029999999 0.96666664
-0.028333334 -0.029999999 0.96666664
-0.026666667 -0.029999999 0.96666664
-0.025 -0.029999999 0.96666664
-0.023333333 -0.029999999 0.96666664
-0.021666666 -0.029999999 0.96666664
-0.020076046 -0.030114068 0.97034222
-0.018403042 -0.030114068 0.97034222
-0.016730038 -0.030114068 0.97034222
-0.015057034 -0.030114068 0.97034222
0.031787071 -0.030114068 0.97034222
0.033460077 -0.030114068 0.97034222
0.035133079 -0.030114068 0.97034222
0.036806084 -0.030114068 0.97034222
0.038479086 -0.030114068 0.97034222
0.039849058 -0.029886793 0.96301889
0.041509435 -0.029886793 0.96301889
0.043169811 -0.029886793 0.96301889
0.044830188 -0.029886793 0.96301889
0.046490565 -0.029886793 0.96301889
0.048150942 -0.029886793 0.96301889
0.049811322 -0.029886793 0.96301889
0.051471699 -0.029886793 0.96301889
0.053132076 -0.029886793 0.96301889
0.054792453 -0.029886793 0.96301889
0.056452829 -0.029886793 0.96301889
0.058113206 -0.029886793 0.96301889
0.059773587 -0.029886793 0.96301889
0.061433963 -0.029886793 0.96301889
0.06309434 -0.029886793 0.96301889
0.064754717 -0.029886793 0.96301889
0.066415094 -0.029886793 0.96301889
0.068075471 -0.029886793 0.96301889
0.069735847 -0.029886793 0.96301889
0.071396224 -0.029886793 0.96301889
0.072781958 -0.029774437 0.95939851
0.074716978 -0.029886793 0.96301889
0.076377362 -0.029886793 0.96301889
0.078037739 -0.029886793 0.96301889
0.079398498 -0.029774437 0.95939851
0.081052631 -0.029774437 0.95939851
0.082706764 -0.029774437 0.95939851
0.083731346 -0.029552238 0.9522388
0.085055761 -0.029442379 0.94869888
0.086051658 -0.029225092 0.94169742
0.087675273 -0.029225092 0.94169742
0.089298896 -0.029225092 0.94169742
0.090588234 -0.029117648 0.93823528
0.092205882 -0.029117648 0.93823528
0.09382353 -0.029117648 0.93823528
0.095091574 -0.029010989 0.93479854
0.096703298 -0.029010989 0.93479854
0.097956203 -0.028905109 0.93138689
0.099562041 -0.028905109 0.93138689
0.10116788 -0.028905109 0.93138689
0.1024 -0.0288 0.92799997
0.104 -0.0288 0.92799997
0.1056 -0.0288 0.92799997
0.10642599 -0.028592058 0.92129964
0.10801444 -0.028592058 0.92129964
0.1080427 -0.028185053 0.90818506
0.10960854 -0.028185053 0.90818506
0.11078014 -0.028085107 0.90496457
0.11234043 -0.028085107 0.90496457
0.11349823 -0.027985865 0.90176678
0.11505301 -0.027985865 0.90176678
0.11660777 -0.027985865 0.90176678
0.11651568 -0.027595818 0.8891986
0.11804878 -0.027595818 0.8891986
0.12042105 -0.027789474 0.89543861
0.12196491 -0.027789474 0.89543861
0.12394366 -0.027887324 0.89859158
0.12549296 -0.027887324 0.89859158
0.1265965 -0.027789474 0.89543861
0.12814035 -0.027789474 0.89543861
0.12968421 -0.027789474 0.89543861
0.13122807 -0.027789474 0.89543861
0.13277192 -0.027789474 0.89543861
0.13384615 -0.027692307 0.8923077
0.13538462 -0.027692307 0.8923077
0.1374035 -0.027789474 0.89543861
0.13846155 -0.027692307 0.8923077
0.14 -0.027692307 0.8923077
0.14153846 -0.027692307 0.8923077
0.14307693 -0.027692307 0.8923077
0.14461538 -0.027692307 0.8923077
0.14615385 -0.027692307 0.8923077
0.14769231 -0.027692307 0.8923077
0.14923076 -0.027692307 0.8923077
0.15076923 -0.027692307 0.8923077
0.15230769 -0.027692307 0.8923077
0.15384616 -0.027692307 0.8923077
0.15538462 -0.027692307 0.8923077
0.15692307 -0.027692307 0.8923077
0.15846154 -0.027692307 0.8923077
0.16 -0.027692307 0.8923077
0.16153847 -0.027692307 0.8923077
0.16307692 -0.027692307 0.8923077
0.16461538 -0.027692307 0.8923077
0.16673684 -0.027789474 0.89543861
0.16828071 -0.027789474 0.89543861
0.17042254 -0.027887324 0.89859158
0.17136842 -0.027789474 0.89543861
0.17352113 -0.027887324 0.89859158
0.17507042 -0.027887324 0.89859158
0.17661972 -0.027887324 0.89859158
0.17879859 -0.027985865 0.90176678
0.18035336 -0.027985865 0.90176678
0.18190813 -0.027985865 0.90176678
0.1834629 -0.027985865 0.90176678
0.18567376 -0.028085107 0.90496457
0.18790035 -0.028185053 0.90818506
0.19014286 -0.028285714 0.91142857
0.19171429 -0.028285714 0.91142857
0.19397849 -0.028387098 0.91469532
0.19696751 -0.028592058 0.92129964
0.19855596 -0.028592058 0.92129964
0.20014441 -0.028592058 0.92129964
-0.17824818 -0.02729927 0.93138689
-0.17664233 -0.02729927 0.93138689
-0.17503649 -0.02729927 0.93138689
-0.1728 -0.0272 0.92799997
-0.17120001 -0.0272 0.92799997
-0.16837545 -0.027003611 0.92129964
-0.16618705 -0.026906475 0.91798562
-0.16460432 -0.026906475 0.91798562
-0.16302158 -0.026906475 0.91798562
-0.16086021 -0.026810035 0.91469532
-0.15928316 -0.026810035 0.91469532
-0.15714286 -0.026714286 0.91142857
-0.15612903 -0.026810035 0.91469532
-0.154 -0.026714286 0.91142857
-0.15242857 -0.026714286 0.91142857
-0.15085714 -0.026714286 0.91142857
-0.14875445 -0.026619216 0.90818506
-0.14718862 -0.026619216 0.90818506
-0.14562277 -0.026619216 0.90818506
-0.1435461 -0.026524823 0.90496457
-0.1424911 -0.026619216 0.90818506
-0.14092527 -0.026619216 0.90818506
-0.13935943 -0.026619216 0.90818506
-0.1377936 -0.026619216 0.90818506
-0.13622776 -0.026619216 0.90818506
-0.13418439 -0.026524823 0.90496457
-0.13262412 -0.026524823 0.90496457
-0.13106383 -0.026524823 0.90496457
-0.12996441 -0.026619216 0.90818506
-0.12839858 -0.026619216 0.90818506
-0.12683274 -0.026619216 0.90818506
-0.1248227 -0.026524823 0.90496457
-0.12326241 -0.026524823 0.90496457
-0.12170213 -0.026524823 0.90496457
-0.12014184 -0.026524823 0.90496457
-0.11900356 -0.026619216 0.90818506
-0.11743772 -0.026619216 0.90818506
-0.11587188 -0.026619216 0.90818506
-0.11430605 -0.026619216 0.90818506
-0.11274021 -0.026619216 0.90818506
-0.11117437 -0.026619216 0.90818506
-0.11 -0.026714286 0.91142857
-0.10842858 -0.026714286 0.91142857
-0.10572438 -0.026431095 0.90176678
-0.10416961 -0.026431095 0.90176678
-0.10225352 -0.026338028 0.89859158
-0.10214286 -0.026714286 0.91142857
-0.10057143 -0.026714286 0.91142857
-0.098999999 -0.026714286 0.91142857
-0.097777776 -0.026810035 0.91469532
-0.095857143 -0.026714286 0.91142857
-0.094285712 -0.026714286 0.91142857
-0.092714287 -0.026714286 0.91142857
-0.091469534 -0.026810035 0.91469532
-0.089892477 -0.026810035 0.91469532
-0.08927536 -0.02710145 0.92463768
-0.088321164 -0.02729927 0.93138689
-0.086715326 -0.02729927 0.93138689
-0.085421242 -0.027399268 0.93479854
-0.084117644 -0.0275 0.93823528
-0.082500003 -0.0275 0.93823528
-0.080882356 -0.0275 0.93823528
-0.079557195 -0.027601477 0.94169742
-0.07793358 -0.027601477 0.94169742
-0.076309964 -0.027601477 0.94169742
-0.074686348 -0.027601477 0.94169742
-0.07333333 -0.027703704 0.94518518
-0.071703702 -0.027703704 0.94518518
-0.070074074 -0.027703704 0.94518518
-0.068698883 -0.027806692 0.94869888
-0.067063197 -0.027806692 0.94869888
-0.065671645 -0.027910449 0.9522388
-0.064269662 -0.028014982 0.95580524
-0.062857144 -0.028120302 0.95939851
-0.061666667 -0.028333334 0.96666664
-0.059999999 -0.028333334 0.96666664
-0.058333334 -0.028333334 0.96666664
-0.056882128 -0.028441064 0.97034222
-0.055 -0.028333334 0.96666664
-0.053333335 -0.028333334 0.96666664
-0.051863119 -0.028441064 0.97034222
-0.050000001 -0.028333334 0.96666664
-0.048333332 -0.028333334 0.96666664
-0.046666667 -0.028333334 0.96666664
-0.045000002 -0.028333334 0.96666664
-0.043498099 -0.028441064 0.97034222
-0.041825093 -0.028441064 0.97034222
-0.040152092 -0.028441064 0.97034222
-0.035 -0.028333334 0.96666664
-0.033333335 -0.028333334 0.96666664
-0.031666666 -0.028333334 0.96666664
-0.029999999 -0.028333334 0.96666664
-0.028333334 -0.028333334 0.96666664
-0.026666667 -0.028333334 0.96666664
-0.025 -0.028333334 0.96666664
-0.023333333 -0.028333334 0.96666664
-0.021666666 -0.028333334 0.96666664
-0.02 -0.028333334 0.96666664
-0.018333333 -0.028333334 0.96666664
-0.016666668 -0.028333334 0.96666664
-0.015 -0.028333334 0.96666664
0.033460077 -0.028441064 0.97034222
0.035133079 -0.028441064 0.97034222
0.036806084 -0.028441064 0.97034222
0.038479086 -0.028441064 0.97034222
0.039849058 -0.028226415 0.96301889
0.041509435 -0.028226415 0.96301889
0.043169811 -0.028226415 0.96301889
0.044830188 -0.028226415 0.96301889
0.046490565 -0.028226415 0.96301889
0.048150942 -0.028226415 0.96301889
0.049811322 -0.028226415 0.96301889
0.051471699 -0.028226415 0.96301889
0.053132076 -0.028226415 0.96301889
0.054792453 -0.028226415 0.96301889
0.056452829 -0.028226415 0.96301889
0.058113206 -0.028226415 0.96301889
0.059773587 -0.028226415 0.96301889
0.061203007 -0.028120302 0.95939851
0.062857144 -0.028120302 0.95939851
0.064511277 -0.028120302 0.95939851
0.066415094 -0.028226415 0.96301889
0.067819551 -0.028120302 0.95939851
0.069473684 -0.028120302 0.95939851
0.071127817 -0.028120302 0.95939851
0.072781958 -0.028120302 0.95939851
0.074436091 -0.028120302 0.95939851
0.076090224 -0.028120302 0.95939851
0.077744357 -0.028120302 0.95939851
0.079398498 -0.028120302 0.95939851
0.081052631 -0.028120302 0.95939851
0.082706764 -0.028120302 0.95939851
0.083731346 -0.027910449 0.9522388
0.085055761 -0.027806692 0.94869888
0.086370371 -0.027703704 0.94518518
0.087675273 -0.027601477 0.94169742
0.089298896 -0.027601477 0.94169742
0.090256408 -0.027399268 0.93479854
0.091868132 -0.027399268 0.93479854
0.093479857 -0.027399268 0.93479854
0.095091574 -0.027399268 0.93479854
0.096703298 -0.027399268 0.93479854
0.098315015 -0.027399268 0.93479854
0.099562041 -0.02729927 0.93138689
0.1008 -0.0272 0.92799997
0.1024 -0.0272 0.92799997
0.10362319 -0.02710145 0.92463768
0.10521739 -0.02710145 0.92463768
0.10604317 -0.026906475 0.91798562
0.10685714 -0.026714286 0.91142857
0.1080427 -0.026619216 0.90818506
0.10921986 -0.026524823 0.90496457
0.11078014 -0.026524823 0.90496457
0.11194346 -0.026431095 0.90176678
0.11349823 -0.026431095 0.90176678
0.11505301 -0.026431095 0.90176678
0.11660777 -0.026431095 0.90176678
0.11816254 -0.026431095 0.90176678
0.11804878 -0.026062718 0.8891986
0.12042105 -0.026245615 0.89543861
0.12239437 -0.026338028 0.89859158
0.12394366 -0.026338028 0.89859158
0.12505263 -0.026245615 0.89543861
0.1265965 -0.026245615 0.89543861
0.12814035 -0.026245615 0.89543861
0.12968421 -0.026245615 0.89543861
0.13122807 -0.026245615 0.89543861
0.13230769 -0.026153846 0.8923077
0.13384615 -0.026153846 0.8923077
0.13538462 -0.026153846 0.8923077
0.13692307 -0.026153846 0.8923077
0.13846155 -0.026153846 0.8923077
0.14 -0.026153846 0.8923077
0.14153846 -0.026153846 0.8923077
0.14307693 -0.026153846 0.8923077
0.14461538 -0.026153846 0.8923077
0.14615385 -0.026153846 0.8923077
0.14769231 -0.026153846 0.8923077
0.14923076 -0.026153846 0.8923077
0.15076923 -0.026153846 0.8923077
0.15230769 -0.026153846 0.8923077
0.15384616 -0.026153846 0.8923077
0.15538462 -0.026153846 0.8923077
0.15692307 -0.026153846 0.8923077
0.15846154 -0.026153846 0.8923077
0.16 -0.026153846 0.8923077
0.16153847 -0.026153846 0.8923077
0.16307692 -0.026153846 0.8923077
0.16461538 -0.026153846 0.8923077
0.16615385 -0.026153846 0.8923077
0.16828071 -0.026245615 0.89543861
0.16982456 -0.026245615 0.89543861
0.17136842 -0.026245615 0.89543861
0.17291228 -0.026245615 0.89543861
0.17507042 -0.026338028 0.89859158
0.17661972 -0.026338028 0.89859158
0.17816901 -0.026338028 0.89859158
0.18035336 -0.026431095 0.90176678
0.18190813 -0.026431095 0.90176678
0.18411347 -0.026524823 0.90496457
0.18567376 -0.026524823 0.90496457
0.18790035 -0.026619216 0.90818506
0.18946619 -0.026619216 0.90818506
0.19171429 -0.026714286 0.91142857
0.19328572 -0.026714286 0.91142857
0.19485714 -0.026714286 0.91142857
0.19642857 -0.026714286 0.91142857
0.198 -0.026714286 0.91142857
-0.17824818 -0.025693431 0.93138689
-0.17664233 -0.025693431 0.93138689
-0.1744 -0.025599999 0.92799997
-0.1728 -0.025599999 0.92799997
-0.1699639 -0.025415162 0.92129964
-0.16837545 -0.025415162 0.92129964
-0.16618705 -0.025323741 0.91798562
-0.16460432 -0.025323741 0.91798562
-0.16302158 -0.025323741 0.91798562
-0.16086021 -0.025232974 0.91469532
-0.15871428 -0.025142858 0.91142857
-0.15714286 -0.025142858 0.91142857
-0.15557143 -0.025142858 0.91142857
-0.15345196 -0.02505338 0.90818506
-0.15188612 -0.02505338 0.90818506
-0.15032029 -0.02505338 0.90818506
-0.14875445 -0.02505338 0.90818506
-0.14718862 -0.02505338 0.90818506
-0.14510639 -0.024964539 0.90496457
-0.1435461 -0.024964539 0.90496457
-0.14198582 -0.024964539 0.90496457
-0.14042553 -0.024964539 0.90496457
-0.13935943 -0.02505338 0.90818506
-0.1377936 -0.02505338 0.90818506
-0.13574468 -0.024964539 0.90496457
-0.13418439 -0.024964539 0.90496457
-0.13262412 -0.024964539 0.90496457
-0.13106383 -0.024964539 0.90496457
-0.12950355 -0.024964539 0.90496457
-0.12794326 -0.024964539 0.90496457
-0.12638298 -0.024964539 0.90496457
-0.1248227 -0.024964539 0.90496457
-0.12326241 -0.024964539 0.90496457
-0.12170213 -0.024964539 0.90496457
-0.12014184 -0.024964539 0.90496457
-0.11858156 -0.024964539 0.90496457
-0.11743772 -0.02505338 0.90818506
-0.11587188 -0.02505338 0.90818506
-0.11430605 -0.02505338 0.90818506
-0.11274021 -0.02505338 0.90818506
-0.11117437 -0.02505338 0.90818506
-0.11 -0.025142858 0.91142857
-0.1080427 -0.02505338 0.90818506
-0.10609929 -0.024964539 0.90496457
-0.10380282 -0.024788732 0.89859158
-0.10225352 -0.024788732 0.89859158
-0.10214286 -0.025142858 0.91142857
-0.10057143 -0.025142858 0.91142857
-0.098999999 -0.025142858 0.91142857
-0.097428568 -0.025142858 0.91142857
-0.095857143 -0.025142858 0.91142857
-0.094285712 -0.025142858 0.91142857
-0.092714287 -0.025142858 0.91142857
-0.091469534 -0.025232974 0.91469532
-0.089892477 -0.025232974 0.91469532
-0.08895307 -0.025415162 0.92129964
-0.088321164 -0.025693431 0.93138689
-0.086715326 -0.025693431 0.93138689
-0.085421242 -0.025787545 0.93479854
-0.083809525 -0.025787545 0.93479854
-0.082500003 -0.025882352 0.93823528
-0.080882356 -0.025882352 0.93823528
-0.079557195 -0.025977859 0.94169742
-0.07793358 -0.025977859 0.94169742
-0.076309964 -0.025977859 0.94169742
-0.074686348 -0.025977859 0.94169742
-0.073062733 -0.025977859 0.94169742
-0.071703702 -0.026074074 0.94518518
-0.070074074 -0.026074074 0.94518518
-0.068698883 -0.026171004 0.94869888
-0.067063197 -0.026171004 0.94869888
-0.065917604 -0.02636704 0.95580524
-0.064269662 -0.02636704 0.95580524
-0.062857144 -0.026466165 0.95939851
-0.061433963 -0.026566038 0.96301889
-0.059999999 -0.026666667 0.96666664
-0.058333334 -0.026666667 0.96666664
-0.056666669 -0.026666667 0.96666664
-0.055 -0.026666667 0.96666664
-0.053333335 -0.026666667 0.96666664
-0.051666666 -0.026666667 0.96666664
-0.049811322 -0.026566038 0.96301889
-0.048333332 -0.026666667 0.96666664
-0.046666667 -0.026666667 0.96666664
-0.045000002 -0.026666667 0.96666664
-0.043333333 -0.026666667 0.96666664
-0.034736842 -0.026466165 0.95939851
-0.033082705 -0.026466165 0.95939851
-0.031428572 -0.026466165 0.95939851
-0.029774437 -0.026466165 0.95939851
-0.028333334 -0.026666667 0.96666664
-0.026666667 -0.026666667 0.96666664
-0.025 -0.026666667 0.96666664
-0.023333333 -0.026666667 0.96666664
-0.021666666 -0.026666667 0.96666664
-0.02 -0.026666667 0.96666664
-0.018333333 -0.026666667 0.96666664
-0.016666668 -0.026666667 0.96666664
0.036806084 -0.02676806 0.97034222
0.038188681 -0.026566038 0.96301889
0.039849058 -0.026566038 0.96301889
0.041509435 -0.026566038 0.96301889
0.043169811 -0.026566038 0.96301889
0.044661652 -0.026466165 0.95939851
0.046315789 -0.026466165 0.95939851
0.047969926 -0.026466165 0.95939851
0.049811322 -0.026566038 0.96301889
0.051278196 -0.026466165 0.95939851
0.052932329 -0.026466165 0.95939851
0.054792453 -0.026566038 0.96301889
0.056452829 -0.026566038 0.96301889
0.058113206 -0.026566038 0.96301889
0.059773587 -0.026566038 0.96301889
0.061203007 -0.026466165 0.95939851
0.062857144 -0.026466165 0.95939851
0.064511277 -0.026466165 0.95939851
0.06616541 -0.026466165 0.95939851
0.067819551 -0.026466165 0.95939851
0.069473684 -0.026466165 0.95939851
0.071127817 -0.026466165 0.95939851
0.072781958 -0.026466165 0.95939851
0.074436091 -0.026466165 0.95939851
0.076090224 -0.026466165 0.95939851
0.077744357 -0.026466165 0.95939851
0.079398498 -0.026466165 0.95939851
0.081052631 -0.026466165 0.95939851
0.082706764 -0.026466165 0.95939851
0.083731346 -0.026268657 0.9522388
0.085055761 -0.026171004 0.94869888
0.086370371 -0.026074074 0.94518518
0.088 -0.026074074 0.94518518
0.088970587 -0.025882352 0.93823528
0.090256408 -0.025787545 0.93479854
0.091868132 -0.025787545 0.93479854
0.093479857 -0.025787545 0.93479854
0.095091574 -0.025787545 0.93479854
0.096703298 -0.025787545 0.93479854
0.097956203 -0.025693431 0.93138689
0.099562041 -0.025693431 0.93138689
0.1008 -0.025599999 0.92799997
0.1024 -0.025599999 0.92799997
0.10362319 -0.025507247 0.92463768
0.10521739 -0.025507247 0.92463768
0.10604317 -0.025323741 0.91798562
0.10685714 -0.025142858 0.91142857
0.10842858 -0.025142858 0.91142857
0.10921986 -0.024964539 0.90496457
0.1103887 -0.024876324 0.90176678
0.11194346 -0.024876324 0.90176678
0.11349823 -0.024876324 0.90176678
0.11505301 -0.024876324 0.90176678
0.11660777 -0.024876324 0.90176678
0.11651568 -0.024529617 0.8891986
0.11804878 -0.024529617 0.8891986
0.11958188 -0.024529617 0.8891986
0.12239437 -0.024788732 0.89859158
0.12350877 -0.024701754 0.89543861
0.12505263 -0.024701754 0.89543861
0.1265965 -0.024701754 0.89543861
0.12814035 -0.024701754 0.89543861
0.12968421 -0.024701754 0.89543861
0.13122807 -0.024701754 0.89543861
0.13230769 -0.024615385 0.8923077
0.13384615 -0.024615385 0.8923077
0.13538462 -0.024615385 0.8923077
0.13692307 -0.024615385 0.8923077
0.13797909 -0.024529617 0.8891986
0.1395122 -0.024529617 0.8891986
0.1410453 -0.024529617 0.8891986
0.14307693 -0.024615385 0.8923077
0.14461538 -0.024615385 0.8923077
0.14615385 -0.024615385 0.8923077
0.14769231 -0.024615385 0.8923077
0.14923076 -0.024615385 0.8923077
0.15076923 -0.024615385 0.8923077
0.15230769 -0.024615385 0.8923077
0.15331011 -0.024529617 0.8891986
0.15484321 -0.024529617 0.8891986
0.15692307 -0.024615385 0.8923077
0.15846154 -0.024615385 0.8923077
0.16 -0.024615385 0.8923077
0.16153847 -0.024615385 0.8923077
0.16307692 -0.024615385 0.8923077
0.16461538 -0.024615385 0.8923077
0.16615385 -0.024615385 0.8923077
0.1676923 -0.024615385 0.8923077
0.16982456 -0.024701754 0.89543861
0.17136842 -0.024701754 0.89543861
0.17291228 -0.024701754 0.89543861
0.17507042 -0.024788732 0.89859158
0.17661972 -0.024788732 0.89859158
0.17816901 -0.024788732 0.89859158
0.17971832 -0.024788732 0.89859158
0.1812676 -0.024788732 0.89859158
0.1834629 -0.024876324 0.90176678
0.18567376 -0.024964539 0.90496457
0.18790035 -0.02505338 0.90818506
0.18946619 -0.02505338 0.90818506
0.19103202 -0.02505338 0.90818506
0.19328572 -0.025142858 0.91142857
0.19485714 -0.025142858 0.91142857
0.19642857 -0.025142858 0.91142857
0.198 -0.025142858 0.91142857
0.19957143 -0.025142858 0.91142857
-0.176 -0.024 0.92799997
-0.1744 -0.024 0.92799997
-0.17155235 -0.023826715 0.92129964
-0.1699639 -0.023826715 0.92129964
-0.16837545 -0.023826715 0.92129964
-0.16618705 -0.023741007 0.91798562
-0.16460432 -0.023741007 0.91798562
-0.16302158 -0.023741007 0.91798562
-0.16143885 -0.023741007 0.91798562
-0.15871428 -0.023571428 0.91142857
-0.15714286 -0.023571428 0.91142857
-0.15501779 -0.023487544 0.90818506
-0.15345196 -0.023487544 0.90818506
-0.15188612 -0.023487544 0.90818506
-0.15032029 -0.023487544 0.90818506
-0.14875445 -0.023487544 0.90818506
-0.14718862 -0.023487544 0.90818506
-0.14510639 -0.023404256 0.90496457
-0.1435461 -0.023404256 0.90496457
-0.14198582 -0.023404256 0.90496457
-0.14042553 -0.023404256 0.90496457
-0.13886525 -0.023404256 0.90496457
-0.13730496 -0.023404256 0.90496457
-0.13574468 -0.023404256 0.90496457
-0.13418439 -0.023404256 0.90496457
-0.13262412 -0.023404256 0.90496457
-0.13106383 -0.023404256 0.90496457
-0.12904593 -0.023321554 0.90176678
-0.12794326 -0.023404256 0.90496457
-0.12638298 -0.023404256 0.90496457
-0.1248227 -0.023404256 0.90496457
-0.12326241 -0.023404256 0.90496457
-0.12170213 -0.023404256 0.90496457
-0.12014184 -0.023404256 0.90496457
-0.11858156 -0.023404256 0.90496457
-0.11702128 -0.023404256 0.90496457
-0.11546099 -0.023404256 0.90496457
-0.11390071 -0.023404256 0.90496457
-0.11234043 -0.023404256 0.90496457
-0.11078014 -0.023404256 0.90496457
-0.10960854 -0.023487544 0.90818506
-0.1080427 -0.023487544 0.90818506
-0.10609929 -0.023404256 0.90496457
-0.10380282 -0.023239437 0.89859158
-0.10225352 -0.023239437 0.89859158
-0.10214286 -0.023571428 0.91142857
-0.10057143 -0.023571428 0.91142857
-0.098999999 -0.023571428 0.91142857
-0.097081847 -0.023487544 0.90818506
-0.095516011 -0.023487544 0.90818506
-0.094285712 -0.023571428 0.91142857
-0.092714287 -0.023571428 0.91142857
-0.091469534 -0.023655914 0.91469532
-0.089892477 -0.023655914 0.91469532
-0.08895307 -0.023826715 0.92129964
-0.088 -0.024 0.92799997
-0.086715326 -0.024087591 0.93138689
-0.085421242 -0.024175825 0.93479854
-0.083809525 -0.024175825 0.93479854
-0.0821978 -0.024175825 0.93479854
-0.080882356 -0.024264706 0.93823528
-0.079264708 -0.024264706 0.93823528
-0.07793358 -0.024354244 0.94169742
-0.076309964 -0.024354244 0.94169742
-0.074686348 -0.024354244 0.94169742
-0.073062733 -0.024354244 0.94169742
-0.071703702 -0.024444444 0.94518518
-0.070074074 -0.024444444 0.94518518
-0.068444446 -0.024444444 0.94518518
-0.066814817 -0.024444444 0.94518518
-0.065917604 -0.0247191 0.95580524
-0.064269662 -0.0247191 0.95580524
-0.062857144 -0.02481203 0.95939851
-0.061433963 -0.024905661 0.96301889
-0.059999999 -0.025 0.96666664
-0.058333334 -0.025 0.96666664
-0.056452829 -0.024905661 0.96301889
-0.054792453 -0.024905661 0.96301889
-0.053132076 -0.024905661 0.96301889
-0.051666666 -0.025 0.96666664
-0.049811322 -0.024905661 0.96301889
-0.048150942 -0.024905661 0.96301889
-0.046666667 -0.025 0.96666664
-0.045000002 -0.025 0.96666664
-0.036390979 -0.02481203 0.95939851
-0.034736842 -0.02481203 0.95939851
-0.033082705 -0.02481203 0.95939851
-0.031428572 -0.02481203 0.95939851
-0.029774437 -0.02481203 0.95939851
-0.028120302 -0.02481203 0.95939851
-0.026666667 -0.025 0.96666664
-0.025 -0.025 0.96666664
-0.023333333 -0.025 0.96666664
-0.021666666 -0.025 0.96666664
-0.02 -0.025 0.96666664
-0.018333333 -0.025 0.96666664
-0.016666668 -0.025 0.96666664
0.039849058 -0.024905661 0.96301889
0.041509435 -0.024905661 0.96301889
0.043169811 -0.024905661 0.96301889
0.044661652 -0.02481203 0.95939851
0.046315789 -0.02481203 0.95939851
0.047969926 -0.02481203 0.95939851
0.049438201 -0.0247191 0.95580524
0.051278196 -0.02481203 0.95939851
0.052734081 -0.0247191 0.95580524
0.054382022 -0.0247191 0.95580524
0.056240603 -0.02481203 0.95939851
0.057894737 -0.02481203 0.95939851
0.059548873 -0.02481203 0.95939851
0.060973782 -0.0247191 0.95580524
0.06262172 -0.0247191 0.95580524
0.064269662 -0.0247191 0.95580524
0.065917604 -0.0247191 0.95580524
0.067819551 -0.02481203 0.95939851
0.069473684 -0.02481203 0.95939851
0.071127817 -0.02481203 0.95939851
0.072781958 -0.02481203 0.95939851
0.074436091 -0.02481203 0.95939851
0.076090224 -0.02481203 0.95939851
0.077744357 -0.02481203 0.95939851
0.079101123 -0.0247191 0.95580524
0.080749065 -0.0247191 0.95580524
0.082397006 -0.0247191 0.95580524
0.083420075 -0.024535315 0.94869888
0.085055761 -0.024535315 0.94869888
0.086051658 -0.024354244 0.94169742
0.087352939 -0.024264706 0.93823528
0.088970587 -0.024264706 0.93823528
0.090588234 -0.024264706 0.93823528
0.091868132 -0.024175825 0.93479854
0.093479857 -0.024175825 0.93479854
0.095091574 -0.024175825 0.93479854
0.096350364 -0.024087591 0.93138689
0.097956203 -0.024087591 0.93138689
0.099562041 -0.024087591 0.93138689
0.1008 -0.024 0.92799997
0.10202899 -0.023913043 0.92463768
0.10362319 -0.023913043 0.92463768
0.10408602 -0.023655914 0.91469532
0.10566308 -0.023655914 0.91469532
0.10724014 -0.023655914 0.91469532
0.10727915 -0.023321554 0.90176678
0.10883392 -0.023321554 0.90176678
0.1103887 -0.023321554 0.90176678
0.11194346 -0.023321554 0.90176678
0.11309859 -0.023239437 0.89859158
0.11464789 -0.023239437 0.89859158
0.11619718 -0.023239437 0.89859158
0.11651568 -0.022996515 0.8891986
0.11804878 -0.022996515 0.8891986
0.12 -0.023076924 0.8923077
0.12196491 -0.023157895 0.89543861
0.12350877 -0.023157895 0.89543861
0.12505263 -0.023157895 0.89543861
0.1265965 -0.023157895 0.89543861
0.12814035 -0.023157895 0.89543861
0.12968421 -0.023157895 0.89543861
0.13076924 -0.023076924 0.8923077
0.13230769 -0.023076924 0.8923077
0.13384615 -0.023076924 0.8923077
0.13538462 -0.023076924 0.8923077
0.13692307 -0.023076924 0.8923077
0.13797909 -0.022996515 0.8891986
0.1395122 -0.022996515 0.8891986
0.1410453 -0.022996515 0.8891986
0.14257839 -0.022996515 0.8891986
0.1441115 -0.022996515 0.8891986
0.14564461 -0.022996515 0.8891986
0.1471777 -0.022996515 0.8891986
0.1487108 -0.022996515 0.8891986
0.15024391 -0.022996515 0.8891986
0.151777 -0.022996515 0.8891986
0.15331011 -0.022996515 0.8891986
0.15484321 -0.022996515 0.8891986
0.1563763 -0.022996515 0.8891986
0.15790941 -0.022996515 0.8891986
0.15944251 -0.022996515 0.8891986
0.16097561 -0.022996515 0.8891986
0.16307692 -0.023076924 0.8923077
0.16461538 -0.023076924 0.8923077
0.16615385 -0.023076924 0.8923077
0.1676923 -0.023076924 0.8923077
0.16923077 -0.023076924 0.8923077
0.17076923 -0.023076924 0.8923077
0.17291228 -0.023157895 0.89543861
0.17445613 -0.023157895 0.89543861
0.17661972 -0.023239437 0.89859158
0.17816901 -0.023239437 0.89859158
0.17971832 -0.023239437 0.89859158
0.1812676 -0.023239437 0.89859158
0.1834629 -0.023321554 0.90176678
0.18567376 -0.023404256 0.90496457
0.18723404 -0.023404256 0.90496457
0.18879433 -0.023404256 0.90496457
0.19171429 -0.023571428 0.91142857
0.19328572 -0.023571428 0.91142857
0.19485714 -0.023571428 0.91142857
0.19642857 -0.023571428 0.91142857
0.198 -0.023571428 0.91142857
0.20028673 -0.023655914 0.91469532
-0.17410073 -0.022158273 0.91798562
-0.17251799 -0.022158273 0.91798562
-0.17093526 -0.022158273 0.91798562
-0.16935252 -0.022158273 0.91798562
-0.16776979 -0.022158273 0.91798562
-0.16618705 -0.022158273 0.91798562
-0.16401434 -0.022078853 0.91469532
-0.16243728 -0.022078853 0.91469532
-0.16086021 -0.022078853 0.91469532
-0.15814947 -0.021921707 0.90818506
-0.15658364 -0.021921707 0.90818506
-0.15501779 -0.021921707 0.90818506
-0.15345196 -0.021921707 0.90818506
-0.15188612 -0.021921707 0.90818506
-0.15032029 -0.021921707 0.90818506
-0.14875445 -0.021921707 0.90818506
-0.14666666 -0.021843972 0.90496457
-0.14510639 -0.021843972 0.90496457
-0.1435461 -0.021843972 0.90496457
-0.14198582 -0.021843972 0.90496457
-0.14042553 -0.021843972 0.90496457
-0.13886525 -0.021843972 0.90496457
-0.13730496 -0.021843972 0.90496457
-0.13574468 -0.021843972 0.90496457
-0.13418439 -0.021843972 0.90496457
-0.13215548 -0.021766784 0.90176678
-0.13060071 -0.021766784 0.90176678
-0.12904593 -0.021766784 0.90176678
-0.12749116 -0.021766784 0.90176678
-0.12638298 -0.021843972 0.90496457
-0.12438162 -0.021766784 0.90176678
-0.12282685 -0.021766784 0.90176678
-0.12170213 -0.021843972 0.90496457
-0.12014184 -0.021843972 0.90496457
-0.11858156 -0.021843972 0.90496457
-0.11702128 -0.021843972 0.90496457
-0.11546099 -0.021843972 0.90496457
-0.11390071 -0.021843972 0.90496457
-0.11234043 -0.021843972 0.90496457
-0.11078014 -0.021843972 0.90496457
-0.10921986 -0.021843972 0.90496457
-0.10765957 -0.021843972 0.90496457
-0.10572438 -0.021766784 0.90176678
-0.10416961 -0.021766784 0.90176678
-0.10261484 -0.021766784 0.90176678
-0.10177936 -0.021921707 0.90818506
-0.10021352 -0.021921707 0.90818506
-0.098647684 -0.021921707 0.90818506
-0.097081847 -0.021921707 0.90818506
-0.095516011 -0.021921707 0.90818506
-0.093950175 -0.021921707 0.90818506
-0.092714287 -0.022 0.91142857
-0.091142856 -0.022 0.91142857
-0.089892477 -0.022078853 0.91469532
-0.088315412 -0.022078853 0.91469532
-0.088 -0.022399999 0.92799997
-0.086715326 -0.022481753 0.93138689
-0.085109487 -0.022481753 0.93138689
-0.083503649 -0.022481753 0.93138689
-0.0821978 -0.022564102 0.93479854
-0.080586083 -0.022564102 0.93479854
-0.079264708 -0.022647059 0.93823528
-0.07764706 -0.022647059 0.93823528
-0.076029412 -0.022647059 0.93823528
-0.074686348 -0.022730628 0.94169742
-0.073062733 -0.022730628 0.94169742
-0.071439117 -0.022730628 0.94169742
-0.070074074 -0.022814814 0.94518518
-0.068444446 -0.022814814 0.94518518
-0.066814817 -0.022814814 0.94518518
-0.065185182 -0.022814814 0.94518518
-0.06402985 -0.022985075 0.9522388
-0.062388059 -0.022985075 0.9522388
-0.061433963 -0.023245282 0.96301889
-0.059773587 -0.023245282 0.96301889
-0.058113206 -0.023245282 0.96301889
-0.056452829 -0.023245282 0.96301889
-0.054792453 -0.023245282 0.96301889
-0.053132076 -0.023245282 0.96301889
-0.051278196 -0.023157895 0.95939851
-0.049624059 -0.023157895 0.95939851
-0.047969926 -0.023157895 0.95939851
-0.046315789 -0.023157895 0.95939851
-0.034736842 -0.023157895 0.95939851
-0.033082705 -0.023157895 0.95939851
-0.031428572 -0.023157895 0.95939851
-0.029774437 -0.023157895 0.95939851
-0.028120302 -0.023157895 0.95939851
-0.026566038 -0.023245282 0.96301889
-0.024905661 -0.023245282 0.96301889
-0.023245282 -0.023245282 0.96301889
-0.021584906 -0.023245282 0.96301889
-0.02 -0.023333333 0.96666664
0.043007519 -0.023157895 0.95939851
0.044661652 -0.023157895 0.95939851
0.046315789 -0.023157895 0.95939851
0.047969926 -0.023157895 0.95939851
0.049438201 -0.023071161 0.95580524
0.051086143 -0.023071161 0.95580524
0.052734081 -0.023071161 0.95580524
0.054382022 -0.023071161 0.95580524
0.055820897 -0.022985075 0.9522388
0.057894737 -0.023157895 0.95939851
0.059325844 -0.023071161 0.95580524
0.060973782 -0.023071161 0.95580524
0.06262172 -0.023071161 0.95580524
0.064269662 -0.023071161 0.95580524
0.065917604 -0.023071161 0.95580524
0.067819551 -0.023157895 0.95939851
0.069473684 -0.023157895 0.95939851
0.070861422 -0.023071161 0.95580524
0.072781958 -0.023157895 0.95939851
0.074157305 -0.023071161 0.95580524
0.075805247 -0.023071161 0.95580524
0.077744357 -0.023157895 0.95939851
0.079101123 -0.023071161 0.95580524
0.080749065 -0.023071161 0.95580524
0.082089551 -0.022985075 0.9522388
0.083420075 -0.022899628 0.94869888
0.084428042 -0.022730628 0.94169742
0.086051658 -0.022730628 0.94169742
0.087675273 -0.022730628 0.94169742
0.088970587 -0.022647059 0.93823528
0.08992701 -0.022481753 0.93138689
0.091532849 -0.022481753 0.93138689
0.093479857 -0.022564102 0.93479854
0.095091574 -0.022564102 0.93479854
0.096350364 -0.022481753 0.93138689
0.097956203 -0.022481753 0.93138689
0.098840579 -0.02231884 0.92463768
0.10043478 -0.02231884 0.92463768
0.10202899 -0.02231884 0.92463768
0.1028777 -0.022158273 0.91798562
0.10446043 -0.022158273 0.91798562
0.10566308 -0.022078853 0.91469532
0.10572438 -0.021766784 0.90176678
0.10727915 -0.021766784 0.90176678
0.10883392 -0.021766784 0.90176678
0.11 -0.021690141 0.89859158
0.1115493 -0.021690141 0.89859158
0.11309859 -0.021690141 0.89859158
0.11464789 -0.021690141 0.89859158
0.11619718 -0.021690141 0.89859158
0.11651568 -0.021463415 0.8891986
0.11804878 -0.021463415 0.8891986
0.12 -0.021538461 0.8923077
0.12153846 -0.021538461 0.8923077
0.12350877 -0.021614036 0.89543861
0.12505263 -0.021614036 0.89543861
0.1265965 -0.021614036 0.89543861
0.12769231 -0.021538461 0.8923077
0.12923077 -0.021538461 0.8923077
0.13076924 -0.021538461 0.8923077
0.13230769 -0.021538461 0.8923077
0.13337979 -0.021463415 0.8891986
0.13491289 -0.021463415 0.8891986
0.136446 -0.021463415 0.8891986
0.13797909 -0.021463415 0.8891986
0.1395122 -0.021463415 0.8891986
0.1410453 -0.021463415 0.8891986
0.14257839 -0.021463415 0.8891986
0.1441115 -0.021463415 0.8891986
0.14564461 -0.021463415 0.8891986
0.1471777 -0.021463415 0.8891986
0.1487108 -0.021463415 0.8891986
0.15024391 -0.021463415 0.8891986
0.151777 -0.021463415 0.8891986
0.15277778 -0.021388888 0.88611114
0.15430556 -0.021388888 0.88611114
0.1563763 -0.021463415 0.8891986
