ply
format ascii 1.0
comment PCL generated
element vertex 1394
property float x
property float y
property float z
element camera 0
property float view_px
property float view_py
property float view_pz
property float x_axisx
property float x_axisy
property float x_axisz
property float y_axisx
property float y_axisy
property float y_axisz
property float z_axisx
property float z_axisy
property float z_axisz
property float focal
property float scalex
property float scaley
property float centerx
property float centery
property int viewportx
property int viewporty
property float k1
property float k2
end_header
-0.11458334 -0.0030555555 0.88611114
-0.11305556 -0.0030555555 0.88611114
-0.11152778 -0.0030555555 0.88611114
-0.11 -0.0030555555 0.88611114
-0.10847222 -0.0030555555 0.88611114
-0.10731708 -0.0030662022 0.8891986
-0.10578397 -0.0030662022 0.8891986
-0.10425087 -0.0030662022 0.8891986
-0.10271777 -0.0030662022 0.8891986
-0.10118467 -0.0030662022 0.8891986
-0.099651568 -0.0030662022 0.8891986
-0.097103447 -0.0030344827 0.88
-0.09558621 -0.0030344827 0.88
-0.095384613 -0.0030769231 0.8923077
-0.093846157 -0.0030769231 0.8923077
-0.09198606 -0.0030662022 0.8891986
-0.090452962 -0.0030662022 0.8891986
-0.088919863 -0.0030662022 0.8891986
-0.087692305 -0.0030769231 0.8923077
-0.086153843 -0.0030769231 0.8923077
-0.084912278 -0.0030877192 0.89543861
-0.084857143 -0.0031428572 0.91142857
-0.083285712 -0.0031428572 0.91142857
-0.081714287 -0.0031428572 0.91142857
-0.081010833 -0.0031768952 0.92129964
-0.079422385 -0.0031768952 0.92129964
-0.077833936 -0.0031768952 0.92129964
-0.076245487 -0.0031768952 0.92129964
-0.074657038 -0.0031768952 0.92129964
-0.07333333 -0.0031884059 0.92463768
-0.07173913 -0.0031884059 0.92463768
-0.070144929 -0.0031884059 0.92463768
-0.068800002 -0.0031999999 0.92799997
-0.067199998 -0.0031999999 0.92799997
-0.066568263 -0.0032472324 0.94169742
-0.064944647 -0.0032472324 0.94169742
-0.063321032 -0.0032472324 0.94169742
-0.061697416 -0.0032472324 0.94169742
-0.060520448 -0.0032713755 0.94869888
-0.058884759 -0.0032713755 0.94869888
-0.057037037 -0.0032592593 0.94518518
-0.055407409 -0.0032592593 0.94518518
-0.053777777 -0.0032592593 0.94518518
-0.052148148 -0.0032592593 0.94518518
-0.05051852 -0.0032592593 0.94518518
-0.048888888 -0.0032592593 0.94518518
-0.04725926 -0.0032592593 0.94518518
-0.045629628 -0.0032592593 0.94518518
-0.044 -0.0032592593 0.94518518
-0.042370372 -0.0032592593 0.94518518
-0.04074074 -0.0032592593 0.94518518
-0.039111111 -0.0032592593 0.94518518
-0.037481483 -0.0032592593 0.94518518
-0.035851851 -0.0032592593 0.94518518
-0.034222223 -0.0032592593 0.94518518
-0.032592591 -0.0032592593 0.94518518
-0.030962963 -0.0032592593 0.94518518
-0.029333333 -0.0032592593 0.94518518
-0.027703704 -0.0032592593 0.94518518
-0.026074074 -0.0032592593 0.94518518
-0.024444444 -0.0032592593 0.94518518
-0.022814814 -0.0032592593 0.94518518
-0.021107011 -0.0032472324 0.94169742
-0.019483395 -0.0032472324 0.94169742
-0.017859779 -0.0032472324 0.94169742
-0.016236162 -0.0032472324 0.94169742
0.037205882 -0.003235294 0.93823528
0.03882353 -0.003235294 0.93823528
0.040441178 -0.003235294 0.93823528
0.042058822 -0.003235294 0.93823528
0.043676469 -0.003235294 0.93823528
0.045294117 -0.003235294 0.93823528
0.046911765 -0.003235294 0.93823528
0.048529413 -0.003235294 0.93823528
0.05014706 -0.003235294 0.93823528
0.051764704 -0.003235294 0.93823528
0.053382352 -0.003235294 0.93823528
0.055 -0.003235294 0.93823528
0.056617647 -0.003235294 0.93823528
0.058235295 -0.003235294 0.93823528
0.059852943 -0.003235294 0.93823528
0.061470587 -0.003235294 0.93823528
0.063088238 -0.003235294 0.93823528
0.064705886 -0.003235294 0.93823528
0.066323526 -0.003235294 0.93823528
0.067941174 -0.003235294 0.93823528
0.069558822 -0.003235294 0.93823528
0.071176469 -0.003235294 0.93823528
0.072794117 -0.003235294 0.93823528
0.074411765 -0.003235294 0.93823528
0.076029412 -0.003235294 0.93823528
0.07764706 -0.003235294 0.93823528
0.078686133 -0.0032116789 0.93138689
0.079999998 -0.0031999999 0.92799997
0.081600003 -0.0031999999 0.92799997
0.08200717 -0.0031541218 0.91469532
0.083584227 -0.0031541218 0.91469532
0.085161291 -0.0031541218 0.91469532
0.086428568 -0.0031428572 0.91142857
0.088 -0.0031428572 0.91142857
0.089252666 -0.0031316725 0.90818506
0.090818502 -0.0031316725 0.90818506
0.092384338 -0.0031316725 0.90818506
0.093950175 -0.0031316725 0.90818506
0.095177308 -0.0031205674 0.90496457
0.096737586 -0.0031205674 0.90496457
0.098297872 -0.0031205674 0.90496457
0.097103447 -0.0030344827 0.88
0.09862069 -0.0030344827 0.88
0.10013793 -0.0030344827 0.88
0.10165517 -0.0030344827 0.88
0.10317241 -0.0030344827 0.88
0.10326531 -0.0029931972 0.86802721
0.10476191 -0.0029931972 0.86802721
0.1062585 -0.0029931972 0.86802721
0.10849315 -0.0030136986 0.87397259
0.11 -0.0030136986 0.87397259
0.11189003 -0.0030240549 0.87697595
0.11340206 -0.0030240549 0.87697595
0.11491409 -0.0030240549 0.87697595
0.1160274 -0.0030136986 0.87397259
0.11753425 -0.0030136986 0.87397259
0.11904109 -0.0030136986 0.87397259
0.12054794 -0.0030136986 0.87397259
0.12163822 -0.0030034129 0.87098974
0.12313993 -0.0030034129 0.87098974
0.12464163 -0.0030034129 0.87098974
0.12614335 -0.0030034129 0.87098974
0.12764505 -0.0030034129 0.87098974
0.12914675 -0.0030034129 0.87098974
0.13064846 -0.0030034129 0.87098974
0.13215017 -0.0030034129 0.87098974
0.13365188 -0.0030034129 0.87098974
0.13515358 -0.0030034129 0.87098974
0.13619047 -0.0029931972 0.86802721
0.138157 -0.0030034129 0.87098974
0.13918367 -0.0029931972 0.86802721
0.14068027 -0.0029931972 0.86802721
0.14217687 -0.0029931972 0.86802721
0.14367346 -0.0029931972 0.86802721
0.14517006 -0.0029931972 0.86802721
0.14666666 -0.0029931972 0.86802721
0.14866894 -0.0030034129 0.87098974
0.14965986 -0.0029931972 0.86802721
0.15167235 -0.0030034129 0.87098974
0.15317406 -0.0030034129 0.87098974
0.15467577 -0.0030034129 0.87098974
0.15617748 -0.0030034129 0.87098974
0.15767919 -0.0030034129 0.87098974
0.15918089 -0.0030034129 0.87098974
0.16068259 -0.0030034129 0.87098974
0.16273972 -0.0030136986 0.87397259
0.16424657 -0.0030136986 0.87397259
0.16575342 -0.0030136986 0.87397259
0.16726027 -0.0030136986 0.87397259
0.16934708 -0.0030240549 0.87697595
0.17085911 -0.0030240549 0.87697595
0.17237113 -0.0030240549 0.87697595
0.17388315 -0.0030240549 0.87697595
0.176 -0.0030344827 0.88
0.17751724 -0.0030344827 0.88
0.17965397 -0.0030449827 0.88304496
0.18180555 -0.0030555555 0.88611114
0.18333334 -0.0030555555 0.88611114
0.18486111 -0.0030555555 0.88611114
0.18769231 -0.0030769231 0.8923077
0.18923077 -0.0030769231 0.8923077
0.19076923 -0.0030769231 0.8923077
0.1923077 -0.0030769231 0.8923077
0.19590107 -0.0031095406 0.90176678
0.19745582 -0.0031095406 0.90176678
0.1990106 -0.0031095406 0.90176678
-0.17850533 -0.0015658363 0.90818506
-0.1769395 -0.0015658363 0.90818506
-0.17537366 -0.0015658363 0.90818506
-0.17380783 -0.0015658363 0.90818506
-0.17224199 -0.0015658363 0.90818506
-0.16946997 -0.0015547703 0.90176678
-0.1679152 -0.0015547703 0.90176678
-0.16636042 -0.0015547703 0.90176678
-0.16480565 -0.0015547703 0.90176678
-0.16210526 -0.0015438596 0.89543861
-0.1605614 -0.0015438596 0.89543861
-0.15901755 -0.0015438596 0.89543861
-0.15747368 -0.0015438596 0.89543861
-0.15538462 -0.0015384615 0.8923077
-0.15331011 -0.0015331011 0.8891986
-0.15230769 -0.0015384615 0.8923077
-0.15076923 -0.0015384615 0.8923077
-0.1487108 -0.0015331011 0.8891986
-0.1471777 -0.0015331011 0.8891986
-0.14564461 -0.0015331011 0.8891986
-0.14361112 -0.0015277778 0.88611114
-0.14208333 -0.0015277778 0.88611114
-0.14055556 -0.0015277778 0.88611114
-0.13902777 -0.0015277778 0.88611114
-0.1375 -0.0015277778 0.88611114
-0.13597222 -0.0015277778 0.88611114
-0.13444445 -0.0015277778 0.88611114
-0.13291667 -0.0015277778 0.88611114
-0.13093425 -0.0015224913 0.88304496
-0.12941177 -0.0015224913 0.88304496
-0.12788928 -0.0015224913 0.88304496
-0.12680556 -0.0015277778 0.88611114
-0.12527777 -0.0015277778 0.88611114
-0.12375 -0.0015277778 0.88611114
-0.12222222 -0.0015277778 0.88611114
-0.12027682 -0.0015224913 0.88304496
-0.11916666 -0.0015277778 0.88611114
-0.11763889 -0.0015277778 0.88611114
-0.11611111 -0.0015277778 0.88611114
-0.11458334 -0.0015277778 0.88611114
-0.11305556 -0.0015277778 0.88611114
-0.11152778 -0.0015277778 0.88611114
-0.11 -0.0015277778 0.88611114
-0.10847222 -0.0015277778 0.88611114
-0.10731708 -0.0015331011 0.8891986
-0.10578397 -0.0015331011 0.8891986
-0.10425087 -0.0015331011 0.8891986
-0.10271777 -0.0015331011 0.8891986
-0.10118467 -0.0015331011 0.8891986
-0.098961934 -0.0015224913 0.88304496
-0.097103447 -0.0015172414 0.88
-0.09558621 -0.0015172414 0.88
-0.095384613 -0.0015384615 0.8923077
-0.093519166 -0.0015331011 0.8891986
-0.09198606 -0.0015331011 0.8891986
-0.090452962 -0.0015331011 0.8891986
-0.088919863 -0.0015331011 0.8891986
-0.087692305 -0.0015384615 0.8923077
-0.086153843 -0.0015384615 0.8923077
-0.084912278 -0.0015438596 0.89543861
-0.084857143 -0.0015714286 0.91142857
-0.083285712 -0.0015714286 0.91142857
-0.08200717 -0.0015770609 0.91469532
-0.080719426 -0.0015827338 0.91798562
-0.079136692 -0.0015827338 0.91798562
-0.077553958 -0.0015827338 0.91798562
-0.075971223 -0.0015827338 0.91798562
-0.074388489 -0.0015827338 0.91798562
-0.07333333 -0.0015942029 0.92463768
-0.07173913 -0.0015942029 0.92463768
-0.070144929 -0.0015942029 0.92463768
-0.06830325 -0.0015884476 0.92129964
-0.066714801 -0.0015884476 0.92129964
-0.065126352 -0.0015884476 0.92129964
-0.063537903 -0.0015884476 0.92129964
-0.058666665 -0.0016296296 0.94518518
-0.057037037 -0.0016296296 0.94518518
-0.055407409 -0.0016296296 0.94518518
-0.053777777 -0.0016296296 0.94518518
-0.052148148 -0.0016296296 0.94518518
-0.05051852 -0.0016296296 0.94518518
-0.048888888 -0.0016296296 0.94518518
-0.04725926 -0.0016296296 0.94518518
-0.045629628 -0.0016296296 0.94518518
-0.044 -0.0016296296 0.94518518
-0.042370372 -0.0016296296 0.94518518
-0.04074074 -0.0016296296 0.94518518
-0.039111111 -0.0016296296 0.94518518
-0.037481483 -0.0016296296 0.94518518
-0.035851851 -0.0016296296 0.94518518
-0.034222223 -0.0016296296 0.94518518
-0.032592591 -0.0016296296 0.94518518
-0.030962963 -0.0016296296 0.94518518
-0.029333333 -0.0016296296 0.94518518
-0.027601477 -0.0016236162 0.94169742
-0.025977859 -0.0016236162 0.94169742
-0.024444444 -0.0016296296 0.94518518
-0.022730628 -0.0016236162 0.94169742
-0.021107011 -0.0016236162 0.94169742
-0.019483395 -0.0016236162 0.94169742
-0.017859779 -0.0016236162 0.94169742
-0.016236162 -0.0016236162 0.94169742
-0.014612546 -0.0016236162 0.94169742
0.035457876 -0.0016117216 0.93479854
0.037069596 -0.0016117216 0.93479854
0.038681317 -0.0016117216 0.93479854
0.040441178 -0.001617647 0.93823528
0.042058822 -0.001617647 0.93823528
0.043676469 -0.001617647 0.93823528
0.045294117 -0.001617647 0.93823528
0.046911765 -0.001617647 0.93823528
0.048529413 -0.001617647 0.93823528
0.05014706 -0.001617647 0.93823528
0.051764704 -0.001617647 0.93823528
0.053186812 -0.0016117216 0.93479854
0.055 -0.001617647 0.93823528
0.056617647 -0.001617647 0.93823528
0.058021978 -0.0016117216 0.93479854
0.059633698 -0.0016117216 0.93479854
0.061470587 -0.001617647 0.93823528
0.063088238 -0.001617647 0.93823528
0.064705886 -0.001617647 0.93823528
0.066323526 -0.001617647 0.93823528
0.067941174 -0.001617647 0.93823528
0.069558822 -0.001617647 0.93823528
0.071176469 -0.001617647 0.93823528
0.072794117 -0.001617647 0.93823528
0.074139193 -0.0016117216 0.93479854
0.076029412 -0.001617647 0.93823528
0.07764706 -0.001617647 0.93823528
0.078686133 -0.0016058395 0.93138689
0.079999998 -0.0016 0.92799997
0.081600003 -0.0016 0.92799997
0.08200717 -0.0015770609 0.91469532
0.083584227 -0.0015770609 0.91469532
0.085161291 -0.0015770609 0.91469532
0.086428568 -0.0015714286 0.91142857
0.087686829 -0.0015658363 0.90818506
0.089252666 -0.0015658363 0.90818506
0.090818502 -0.0015658363 0.90818506
0.092384338 -0.0015658363 0.90818506
0.093617022 -0.0015602837 0.90496457
0.095177308 -0.0015602837 0.90496457
0.096737586 -0.0015602837 0.90496457
0.095257729 -0.0015120275 0.87697595
0.096769758 -0.0015120275 0.87697595
0.09862069 -0.0015172414 0.88
0.10013793 -0.0015172414 0.88
0.10165517 -0.0015172414 0.88
0.10317241 -0.0015172414 0.88
0.10326531 -0.0014965986 0.86802721
0.10476191 -0.0014965986 0.86802721
0.10662116 -0.0015017064 0.87098974
0.10849315 -0.0015068493 0.87397259
0.11 -0.0015068493 0.87397259
0.11189003 -0.0015120275 0.87697595
0.11340206 -0.0015120275 0.87697595
0.11452055 -0.0015068493 0.87397259
0.1160274 -0.0015068493 0.87397259
0.11753425 -0.0015068493 0.87397259
0.11904109 -0.0015068493 0.87397259
0.12013652 -0.0015017064 0.87098974
0.12163822 -0.0015017064 0.87098974
0.12313993 -0.0015017064 0.87098974
0.12464163 -0.0015017064 0.87098974
0.12614335 -0.0015017064 0.87098974
0.12764505 -0.0015017064 0.87098974
0.12870748 -0.0014965986 0.86802721
0.13064846 -0.0015017064 0.87098974
0.13215017 -0.0015017064 0.87098974
0.13319728 -0.0014965986 0.86802721
0.13469388 -0.0014965986 0.86802721
0.13619047 -0.0014965986 0.86802721
0.13768707 -0.0014965986 0.86802721
0.13918367 -0.0014965986 0.86802721
0.14068027 -0.0014965986 0.86802721
0.14217687 -0.0014965986 0.86802721
0.14367346 -0.0014965986 0.86802721
0.14517006 -0.0014965986 0.86802721
0.14666666 -0.0014965986 0.86802721
0.14816326 -0.0014965986 0.86802721
0.14965986 -0.0014965986 0.86802721
0.15115646 -0.0014965986 0.86802721
0.15265307 -0.0014965986 0.86802721
0.15467577 -0.0015017064 0.87098974
0.15564626 -0.0014965986 0.86802721
0.15767919 -0.0015017064 0.87098974
0.15918089 -0.0015017064 0.87098974
0.16068259 -0.0015017064 0.87098974
0.16273972 -0.0015068493 0.87397259
0.16368601 -0.0015017064 0.87098974
0.16575342 -0.0015068493 0.87397259
0.16726027 -0.0015068493 0.87397259
0.16876712 -0.0015068493 0.87397259
0.17085911 -0.0015120275 0.87697595
0.17237113 -0.0015120275 0.87697595
0.17388315 -0.0015120275 0.87697595
0.176 -0.0015172414 0.88
0.17751724 -0.0015172414 0.88
0.17965397 -0.0015224913 0.88304496
0.18180555 -0.0015277778 0.88611114
0.18333334 -0.0015277778 0.88611114
0.18486111 -0.0015277778 0.88611114
0.18703833 -0.0015331011 0.8891986
0.18923077 -0.0015384615 0.8923077
0.19076923 -0.0015384615 0.8923077
0.19298245 -0.0015438596 0.89543861
0.19452631 -0.0015438596 0.89543861
0.19607018 -0.0015438596 0.89543861
-0.17850533 0 0.90818506
-0.1769395 0 0.90818506
-0.17537366 0 0.90818506
-0.17380783 0 0.90818506
-0.17224199 0 0.90818506
-0.17007092 0 0.90496457
-0.16732395 0 0.89859158
-0.16577464 0 0.89859158
-0.16422535 0 0.89859158
-0.16210526 0 0.89543861
-0.1605614 0 0.89543861
-0.15901755 0 0.89543861
-0.15692307 0 0.8923077
-0.15538462 0 0.8923077
-0.15331011 0 0.8891986
-0.151777 0 0.8891986
-0.15024391 0 0.8891986
-0.1487108 0 0.8891986
-0.1471777 0 0.8891986
-0.14564461 0 0.8891986
-0.14361112 0 0.88611114
-0.14208333 0 0.88611114
-0.14055556 0 0.88611114
-0.13902777 0 0.88611114
-0.1375 0 0.88611114
-0.13597222 0 0.88611114
-0.13444445 0 0.88611114
-0.13291667 0 0.88611114
-0.13093425 0 0.88304496
-0.12941177 0 0.88304496
-0.12788928 0 0.88304496
-0.12636678 0 0.88304496
-0.12527777 0 0.88611114
-0.12375 0 0.88611114
-0.12179931 0 0.88304496
-0.12027682 0 0.88304496
-0.11875433 0 0.88304496
-0.11763889 0 0.88611114
-0.11611111 0 0.88611114
-0.11458334 0 0.88611114
-0.11305556 0 0.88611114
-0.11114187 0 0.88304496
-0.10961938 0 0.88304496
-0.10809688 0 0.88304496
-0.10731708 0 0.8891986
-0.10578397 0 0.8891986
-0.10425087 0 0.8891986
-0.10271777 0 0.8891986
-0.10118467 0 0.8891986
-0.098961934 0 0.88304496
-0.097439446 0 0.88304496
-0.09558621 0 0.88
-0.094068967 0 0.88
-0.093519166 0 0.8891986
-0.09198606 0 0.8891986
-0.090452962 0 0.8891986
-0.088919863 0 0.8891986
-0.087692305 0 0.8923077
-0.086153843 0 0.8923077
-0.08432056 0 0.8891986
-0.082787454 0 0.8891986
-0.083584227 0 0.91469532
-0.08200717 0 0.91469532
-0.080430105 0 0.91469532
-0.079136692 0 0.91798562
-0.077553958 0 0.91798562
-0.075971223 0 0.91798562
-0.074388489 0 0.91798562
-0.072805755 0 0.91798562
-0.07173913 0 0.92463768
-0.069891699 0 0.92129964
-0.06830325 0 0.92129964
-0.066714801 0 0.92129964
-0.065126352 0 0.92129964
-0.063537903 0 0.92129964
-0.059583332 0 0.88611114
-0.055202954 0 0.94169742
-0.053777777 0 0.94518518
-0.052148148 0 0.94518518
-0.05051852 0 0.94518518
-0.048888888 0 0.94518518
-0.04725926 0 0.94518518
-0.045461256 0 0.94169742
-0.043837637 0 0.94169742
-0.042370372 0 0.94518518
-0.04074074 0 0.94518518
-0.03896679 0 0.94169742
-0.037343174 0 0.94169742
-0.035851851 0 0.94518518
-0.034095939 0 0.94169742
-0.032472324 0 0.94169742
-0.030962963 0 0.94518518
-0.029225092 0 0.94169742
-0.027601477 0 0.94169742
-0.025977859 0 0.94169742
-0.024354244 0 0.94169742
-0.022730628 0 0.94169742
-0.021107011 0 0.94169742
-0.019483395 0 0.94169742
-0.017859779 0 0.94169742
-0.016236162 0 0.94169742
-0.014612546 0 0.94169742
-0.012941176 0 0.93823528
0.032234434 0 0.93479854
0.035457876 0 0.93479854
0.037069596 0 0.93479854
0.038681317 0 0.93479854
0.040293042 0 0.93479854
0.041904762 0 0.93479854
0.043516483 0 0.93479854
0.045128204 0 0.93479854
0.046739928 0 0.93479854
0.048351649 0 0.93479854
0.05014706 0 0.93823528
0.051575091 0 0.93479854
0.053186812 0 0.93479854
0.054798536 0 0.93479854
0.056410257 0 0.93479854
0.058021978 0 0.93479854
0.059633698 0 0.93479854
0.061245423 0 0.93479854
0.062857144 0 0.93479854
0.064468868 0 0.93479854
0.066080585 0 0.93479854
0.06769231 0 0.93479854
0.069304027 0 0.93479854
0.070915751 0 0.93479854
0.072527476 0 0.93479854
0.074139193 0 0.93479854
0.075750917 0 0.93479854
0.077362634 0 0.93479854
0.078400001 0 0.92799997
0.079136692 0 0.91798562
0.080719426 0 0.91798562
0.081714287 0 0.91142857
0.08298932 0 0.90818506
0.084555157 0 0.90818506
0.086120993 0 0.90818506
0.087686829 0 0.90818506
0.089252666 0 0.90818506
0.090818502 0 0.90818506
0.092384338 0 0.90818506
0.093286216 0 0.90176678
0.094840989 0 0.90176678
0.093745701 0 0.87697595
0.095257729 0 0.87697595
0.096769758 0 0.87697595
0.098281786 0 0.87697595
0.099793814 0 0.87697595
0.10130584 0 0.87697595
0.10317241 0 0.88
0.10326531 0 0.86802721
0.10511945 0 0.87098974
0.10662116 0 0.87098974
0.10849315 0 0.87397259
0.11 0 0.87397259
0.11189003 0 0.87697595
0.1130137 0 0.87397259
0.11452055 0 0.87397259
0.1160274 0 0.87397259
0.11753425 0 0.87397259
0.11904109 0 0.87397259
0.12013652 0 0.87098974
0.12163822 0 0.87098974
0.12313993 0 0.87098974
0.12464163 0 0.87098974
0.12614335 0 0.87098974
0.12721089 0 0.86802721
0.12870748 0 0.86802721
0.13020408 0 0.86802721
0.13170068 0 0.86802721
0.13319728 0 0.86802721
0.13469388 0 0.86802721
0.13619047 0 0.86802721
0.13768707 0 0.86802721
0.13918367 0 0.86802721
0.14068027 0 0.86802721
0.14217687 0 0.86802721
0.14367346 0 0.86802721
0.14517006 0 0.86802721
0.14666666 0 0.86802721
0.14816326 0 0.86802721
0.14965986 0 0.86802721
0.15115646 0 0.86802721
0.15265307 0 0.86802721
0.15414967 0 0.86802721
0.15564626 0 0.86802721
0.15714286 0 0.86802721
0.15863946 0 0.86802721
0.16068259 0 0.87098974
0.1621843 0 0.87098974
0.16368601 0 0.87098974
0.16575342 0 0.87397259
0.16726027 0 0.87397259
0.16876712 0 0.87397259
0.17085911 0 0.87697595
0.17237113 0 0.87697595
0.17388315 0 0.87697595
0.17539519 0 0.87697595
0.17751724 0 0.88
0.17903449 0 0.88
0.18055172 0 0.88
0.18269897 0 0.88304496
0.18486111 0 0.88611114
0.18703833 0 0.8891986
0.18857142 0 0.8891986
0.19076923 0 0.8923077
0.19298245 0 0.89543861
0.19452631 0 0.89543861
0.19607018 0 0.89543861
-0.18007118 0.0015658363 0.90818506
-0.17850533 0.0015658363 0.90818506
-0.1769395 0.0015658363 0.90818506
-0.17537366 0.0015658363 0.90818506
-0.17380783 0.0015658363 0.90818506
-0.1716312 0.0015602837 0.90496457
-0.17007092 0.0015602837 0.90496457
-0.16732395 0.0015492957 0.89859158
-0.16577464 0.0015492957 0.89859158
-0.16422535 0.0015492957 0.89859158
-0.16210526 0.0015438596 0.89543861
-0.1605614 0.0015438596 0.89543861
-0.15846154 0.0015384615 0.8923077
-0.15692307 0.0015384615 0.8923077
-0.15538462 0.0015384615 0.8923077
-0.15331011 0.0015331011 0.8891986
-0.151777 0.0015331011 0.8891986
-0.15024391 0.0015331011 0.8891986
-0.1487108 0.0015331011 0.8891986
-0.1471777 0.0015331011 0.8891986
-0.14564461 0.0015331011 0.8891986
-0.14361112 0.0015277778 0.88611114
-0.14208333 0.0015277778 0.88611114
-0.14055556 0.0015277778 0.88611114
-0.13854672 0.0015224913 0.88304496
-0.1375 0.0015277778 0.88611114
-0.13597222 0.0015277778 0.88611114
-0.13444445 0.0015277778 0.88611114
-0.13245675 0.0015224913 0.88304496
-0.13093425 0.0015224913 0.88304496
-0.12941177 0.0015224913 0.88304496
-0.12788928 0.0015224913 0.88304496
-0.12636678 0.0015224913 0.88304496
-0.12484429 0.0015224913 0.88304496
-0.1233218 0.0015224913 0.88304496
-0.12137931 0.0015172414 0.88
-0.12027682 0.0015224913 0.88304496
-0.11875433 0.0015224913 0.88304496
-0.11723183 0.0015224913 0.88304496
-0.11570934 0.0015224913 0.88304496
-0.11418685 0.0015224913 0.88304496
-0.11266436 0.0015224913 0.88304496
-0.11114187 0.0015224913 0.88304496
-0.10961938 0.0015224913 0.88304496
-0.10809688 0.0015224913 0.88304496
-0.10657439 0.0015224913 0.88304496
-0.1050519 0.0015224913 0.88304496
-0.10425087 0.0015331011 0.8891986
-0.10271777 0.0015331011 0.8891986
-0.10083333 0.0015277778 0.88611114
-0.099305555 0.0015277778 0.88611114
-0.097777776 0.0015277778 0.88611114
-0.095916957 0.0015224913 0.88304496
-0.093424655 0.0015068493 0.87397259
-0.093519166 0.0015331011 0.8891986
-0.09198606 0.0015331011 0.8891986
-0.090452962 0.0015331011 0.8891986
-0.088919863 0.0015331011 0.8891986
-0.087386757 0.0015331011 0.8891986
-0.085853659 0.0015331011 0.8891986
-0.08432056 0.0015331011 0.8891986
-0.082787454 0.0015331011 0.8891986
-0.083584227 0.0015770609 0.91469532
-0.08200717 0.0015770609 0.91469532
-0.080430105 0.0015770609 0.91469532
-0.078853048 0.0015770609 0.91469532
-0.077275984 0.0015770609 0.91469532
-0.075698927 0.0015770609 0.91469532
-0.074388489 0.0015827338 0.91798562
-0.072544806 0.0015770609 0.91469532
-0.071223021 0.0015827338 0.91798562
-0.069891699 0.0015884476 0.92129964
-0.06830325 0.0015884476 0.92129964
-0.066714801 0.0015884476 0.92129964
-0.065126352 0.0015884476 0.92129964
-0.063537903 0.0015884476 0.92129964
-0.059583332 0.0015277778 0.88611114
-0.058055557 0.0015277778 0.88611114
-0.056527779 0.0015277778 0.88611114
-0.055202954 0.0016236162 0.94169742
-0.053579334 0.0016236162 0.94169742
-0.051955719 0.0016236162 0.94169742
-0.050332103 0.0016236162 0.94169742
-0.048708487 0.0016236162 0.94169742
-0.047084872 0.0016236162 0.94169742
-0.045461256 0.0016236162 0.94169742
-0.043837637 0.0016236162 0.94169742
-0.042214021 0.0016236162 0.94169742
-0.040590405 0.0016236162 0.94169742
-0.03896679 0.0016236162 0.94169742
-0.037343174 0.0016236162 0.94169742
-0.035719559 0.0016236162 0.94169742
-0.034095939 0.0016236162 0.94169742
-0.032472324 0.0016236162 0.94169742
-0.030848708 0.0016236162 0.94169742
-0.029225092 0.0016236162 0.94169742
-0.027601477 0.0016236162 0.94169742
-0.025977859 0.0016236162 0.94169742
-0.024354244 0.0016236162 0.94169742
-0.022730628 0.0016236162 0.94169742
-0.021107011 0.0016236162 0.94169742
-0.019483395 0.0016236162 0.94169742
-0.017859779 0.0016236162 0.94169742
-0.016236162 0.0016236162 0.94169742
-0.014612546 0.0016236162 0.94169742
-0.012941176 0.001617647 0.93823528
-0.011323529 0.001617647 0.93823528
-0.0097058825 0.001617647 0.93823528
0.029010989 0.0016117216 0.93479854
0.030622711 0.0016117216 0.93479854
0.032234434 0.0016117216 0.93479854
0.033846155 0.0016117216 0.93479854
0.035457876 0.0016117216 0.93479854
0.037069596 0.0016117216 0.93479854
0.038681317 0.0016117216 0.93479854
0.040293042 0.0016117216 0.93479854
0.041904762 0.0016117216 0.93479854
0.043516483 0.0016117216 0.93479854
0.045128204 0.0016117216 0.93479854
0.046739928 0.0016117216 0.93479854
0.048351649 0.0016117216 0.93479854
0.04996337 0.0016117216 0.93479854
0.051575091 0.0016117216 0.93479854
0.053186812 0.0016117216 0.93479854
0.054798536 0.0016117216 0.93479854
0.056410257 0.0016117216 0.93479854
0.058021978 0.0016117216 0.93479854
0.059633698 0.0016117216 0.93479854
0.061245423 0.0016117216 0.93479854
0.062857144 0.0016117216 0.93479854
0.064468868 0.0016117216 0.93479854
0.066080585 0.0016117216 0.93479854
0.06769231 0.0016117216 0.93479854
0.069304027 0.0016117216 0.93479854
0.070915751 0.0016117216 0.93479854
0.072527476 0.0016117216 0.93479854
0.074139193 0.0016117216 0.93479854
0.075750917 0.0016117216 0.93479854
0.077362634 0.0016117216 0.93479854
0.078400001 0.0016 0.92799997
0.079136692 0.0015827338 0.91798562
0.080142856 0.0015714286 0.91142857
0.081714287 0.0015714286 0.91142857
0.08298932 0.0015658363 0.90818506
0.084555157 0.0015658363 0.90818506
0.086120993 0.0015658363 0.90818506
0.087375887 0.0015602837 0.90496457
0.088936172 0.0015602837 0.90496457
0.090496451 0.0015602837 0.90496457
0.091731451 0.0015547703 0.90176678
0.093286216 0.0015547703 0.90176678
0.094840989 0.0015547703 0.90176678
0.093745701 0.0015120275 0.87697595
0.095257729 0.0015120275 0.87697595
0.096769758 0.0015120275 0.87697595
0.098281786 0.0015120275 0.87697595
0.099793814 0.0015120275 0.87697595
0.10130584 0.0015120275 0.87697595
0.10176871 0.0014965986 0.86802721
0.10326531 0.0014965986 0.86802721
0.10511945 0.0015017064 0.87098974
0.10662116 0.0015017064 0.87098974
0.10812287 0.0015017064 0.87098974
0.10962457 0.0015017064 0.87098974
0.11150685 0.0015068493 0.87397259
0.1130137 0.0015068493 0.87397259
0.11412969 0.0015017064 0.87098974
0.11523809 0.0014965986 0.86802721
0.11673469 0.0014965986 0.86802721
0.11823129 0.0014965986 0.86802721
0.11972789 0.0014965986 0.86802721
0.12122449 0.0014965986 0.86802721
0.12272109 0.0014965986 0.86802721
0.12421769 0.0014965986 0.86802721
0.12528813 0.0014915254 0.86508477
0.12721089 0.0014965986 0.86802721
0.12870748 0.0014965986 0.86802721
0.12976271 0.0014915254 0.86508477
0.13125424 0.0014915254 0.86508477
0.13319728 0.0014965986 0.86802721
0.13469388 0.0014965986 0.86802721
0.13572881 0.0014915254 0.86508477
0.13722034 0.0014915254 0.86508477
0.13918367 0.0014965986 0.86802721
0.14020339 0.0014915254 0.86508477
0.14169492 0.0014915254 0.86508477
0.14367346 0.0014965986 0.86802721
0.14517006 0.0014965986 0.86802721
0.14666666 0.0014965986 0.86802721
0.14816326 0.0014965986 0.86802721
0.14965986 0.0014965986 0.86802721
0.15115646 0.0014965986 0.86802721
0.15265307 0.0014965986 0.86802721
0.15414967 0.0014965986 0.86802721
0.15564626 0.0014965986 0.86802721
0.15714286 0.0014965986 0.86802721
0.15863946 0.0014965986 0.86802721
0.16068259 0.0015017064 0.87098974
0.1621843 0.0015017064 0.87098974
0.16368601 0.0015017064 0.87098974
0.16518772 0.0015017064 0.87098974
0.16668943 0.0015017064 0.87098974
0.16876712 0.0015068493 0.87397259
0.17027397 0.0015068493 0.87397259
0.17237113 0.0015120275 0.87697595
0.17388315 0.0015120275 0.87697595
0.17539519 0.0015120275 0.87697595
0.17690721 0.0015120275 0.87697595
0.17903449 0.0015172414 0.88
0.18117647 0.0015224913 0.88304496
0.18269897 0.0015224913 0.88304496
0.18422145 0.0015224913 0.88304496
0.18638889 0.0015277778 0.88611114
0.18923077 0.0015384615 0.8923077
0.19076923 0.0015384615 0.8923077
0.19298245 0.0015438596 0.89543861
0.19452631 0.0015438596 0.89543861
0.19607018 0.0015438596 0.89543861
0.19761403 0.0015438596 0.89543861
-0.17850533 0.0031316725 0.90818506
-0.1769395 0.0031316725 0.90818506
-0.17537366 0.0031316725 0.90818506
-0.17380783 0.0031316725 0.90818506
-0.1716312 0.0031205674 0.90496457
-0.17007092 0.0031205674 0.90496457
-0.16732395 0.0030985915 0.89859158
-0.16577464 0.0030985915 0.89859158
-0.16364913 0.0030877192 0.89543861
-0.16210526 0.0030877192 0.89543861
-0.1605614 0.0030877192 0.89543861
-0.15846154 0.0030769231 0.8923077
-0.1563763 0.0030662022 0.8891986
-0.15484321 0.0030662022 0.8891986
-0.15331011 0.0030662022 0.8891986
-0.151777 0.0030662022 0.8891986
-0.14972222 0.0030555555 0.88611114
-0.1487108 0.0030662022 0.8891986
-0.1471777 0.0030662022 0.8891986
-0.14463668 0.0030449827 0.88304496
-0.14311419 0.0030449827 0.88304496
-0.14208333 0.0030555555 0.88611114
-0.1400692 0.0030449827 0.88304496
-0.13854672 0.0030449827 0.88304496
-0.13702422 0.0030449827 0.88304496
-0.13550173 0.0030449827 0.88304496
-0.13397925 0.0030449827 0.88304496
-0.13245675 0.0030449827 0.88304496
-0.13093425 0.0030449827 0.88304496
-0.12941177 0.0030449827 0.88304496
-0.12788928 0.0030449827 0.88304496
-0.12636678 0.0030449827 0.88304496
-0.12484429 0.0030449827 0.88304496
-0.1233218 0.0030449827 0.88304496
-0.12137931 0.0030344827 0.88
-0.11986207 0.0030344827 0.88
-0.11875433 0.0030449827 0.88304496
-0.11723183 0.0030449827 0.88304496
-0.11570934 0.0030449827 0.88304496
-0.11418685 0.0030449827 0.88304496
-0.11227586 0.0030344827 0.88
-0.11114187 0.0030449827 0.88304496
-0.10961938 0.0030449827 0.88304496
-0.10809688 0.0030449827 0.88304496
-0.10657439 0.0030449827 0.88304496
-0.1050519 0.0030449827 0.88304496
-0.10352941 0.0030449827 0.88304496
-0.10200692 0.0030449827 0.88304496
-0.10083333 0.0030555555 0.88611114
-0.099305555 0.0030555555 0.88611114
-0.097439446 0.0030449827 0.88304496
-0.095916957 0.0030449827 0.88304496
-0.093424655 0.0030136986 0.87397259
-0.091917805 0.0030136986 0.87397259
-0.09198606 0.0030662022 0.8891986
-0.090452962 0.0030662022 0.8891986
-0.088919863 0.0030662022 0.8891986
-0.087083332 0.0030555555 0.88611114
-0.085853659 0.0030662022 0.8891986
-0.08432056 0.0030662022 0.8891986
-0.082787454 0.0030662022 0.8891986
-0.081538461 0.0030769231 0.8923077
-0.079999998 0.0030769231 0.8923077
-0.078461535 0.0030769231 0.8923077
-0.078853048 0.0031541218 0.91469532
-0.077275984 0.0031541218 0.91469532
-0.075698927 0.0031541218 0.91469532
-0.074121863 0.0031541218 0.91469532
-0.072544806 0.0031541218 0.91469532
-0.071223021 0.0031654676 0.91798562
-0.069640286 0.0031654676 0.91798562
-0.068057552 0.0031654676 0.91798562
-0.066714801 0.0031768952 0.92129964
-0.065126352 0.0031768952 0.92129964
-0.061111111 0.0030555555 0.88611114
-0.059583332 0.0030555555 0.88611114
-0.058055557 0.0030555555 0.88611114
-0.056527779 0.0030555555 0.88611114
-0.055 0.0030555555 0.88611114
-0.056826569 0.0032472324 0.94169742
-0.055202954 0.0032472324 0.94169742
-0.053579334 0.0032472324 0.94169742
-0.051955719 0.0032472324 0.94169742
-0.050332103 0.0032472324 0.94169742
-0.048708487 0.0032472324 0.94169742
-0.047084872 0.0032472324 0.94169742
-0.045461256 0.0032472324 0.94169742
-0.043837637 0.0032472324 0.94169742
-0.042214021 0.0032472324 0.94169742
-0.040590405 0.0032472324 0.94169742
-0.03896679 0.0032472324 0.94169742
-0.037343174 0.0032472324 0.94169742
-0.035719559 0.0032472324 0.94169742
-0.033970587 0.003235294 0.93823528
-0.032472324 0.0032472324 0.94169742
-0.030848708 0.0032472324 0.94169742
-0.029225092 0.0032472324 0.94169742
-0.027601477 0.0032472324 0.94169742
-0.025977859 0.0032472324 0.94169742
-0.024354244 0.0032472324 0.94169742
-0.022647059 0.003235294 0.93823528
-0.021029411 0.003235294 0.93823528
-0.019411765 0.003235294 0.93823528
-0.017859779 0.0032472324 0.94169742
-0.016236162 0.0032472324 0.94169742
-0.014558824 0.003235294 0.93823528
-0.012941176 0.003235294 0.93823528
-0.011323529 0.003235294 0.93823528
-0.0097058825 0.003235294 0.93823528
0.029010989 0.0032234432 0.93479854
0.030622711 0.0032234432 0.93479854
0.032234434 0.0032234432 0.93479854
0.033846155 0.0032234432 0.93479854
0.035457876 0.0032234432 0.93479854
0.037069596 0.0032234432 0.93479854
0.038681317 0.0032234432 0.93479854
0.040293042 0.0032234432 0.93479854
0.041904762 0.0032234432 0.93479854
0.043516483 0.0032234432 0.93479854
0.045128204 0.0032234432 0.93479854
0.046739928 0.0032234432 0.93479854
0.048351649 0.0032234432 0.93479854
0.04996337 0.0032234432 0.93479854
0.051575091 0.0032234432 0.93479854
0.053186812 0.0032234432 0.93479854
0.054798536 0.0032234432 0.93479854
0.056410257 0.0032234432 0.93479854
0.058021978 0.0032234432 0.93479854
0.059633698 0.0032234432 0.93479854
0.061245423 0.0032234432 0.93479854
0.06262774 0.0032116789 0.93138689
0.064468868 0.0032234432 0.93479854
0.066080585 0.0032234432 0.93479854
0.06769231 0.0032234432 0.93479854
0.069304027 0.0032234432 0.93479854
0.070915751 0.0032234432 0.93479854
0.072527476 0.0032234432 0.93479854
0.074139193 0.0032234432 0.93479854
0.075750917 0.0032234432 0.93479854
0.077362634 0.0032234432 0.93479854
0.078400001 0.0031999999 0.92799997
0.078571431 0.0031428572 0.91142857
0.080142856 0.0031428572 0.91142857
0.081423491 0.0031316725 0.90818506
0.08298932 0.0031316725 0.90818506
0.084555157 0.0031316725 0.90818506
0.085815601 0.0031205674 0.90496457
0.087375887 0.0031205674 0.90496457
0.088936172 0.0031205674 0.90496457
0.090176679 0.0031095406 0.90176678
0.091731451 0.0031095406 0.90176678
0.093286216 0.0031095406 0.90176678
0.094840989 0.0031095406 0.90176678
0.093745701 0.0030240549 0.87697595
0.095257729 0.0030240549 0.87697595
0.096769758 0.0030240549 0.87697595
0.098281786 0.0030240549 0.87697595
0.099793814 0.0030240549 0.87697595
0.10130584 0.0030240549 0.87697595
0.10176871 0.0029931972 0.86802721
0.10326531 0.0029931972 0.86802721
0.10476191 0.0029931972 0.86802721
0.10662116 0.0030034129 0.87098974
0.10812287 0.0030034129 0.87098974
0.10962457 0.0030034129 0.87098974
0.11112628 0.0030034129 0.87098974
0.11262798 0.0030034129 0.87098974
0.11412969 0.0030034129 0.87098974
0.11523809 0.0029931972 0.86802721
0.11673469 0.0029931972 0.86802721
0.11823129 0.0029931972 0.86802721
0.11972789 0.0029931972 0.86802721
0.12122449 0.0029931972 0.86802721
0.12272109 0.0029931972 0.86802721
0.12421769 0.0029931972 0.86802721
0.12528813 0.0029830509 0.86508477
0.12677966 0.0029830509 0.86508477
0.12827119 0.0029830509 0.86508477
0.12976271 0.0029830509 0.86508477
0.13125424 0.0029830509 0.86508477
0.13274576 0.0029830509 0.86508477
0.13423729 0.0029830509 0.86508477
0.13572881 0.0029830509 0.86508477
0.13722034 0.0029830509 0.86508477
0.13871187 0.0029830509 0.86508477
0.14020339 0.0029830509 0.86508477
0.14169492 0.0029830509 0.86508477
0.14318644 0.0029830509 0.86508477
0.14467797 0.0029830509 0.86508477
0.14666666 0.0029931972 0.86802721
0.14816326 0.0029931972 0.86802721
0.14915255 0.0029830509 0.86508477
0.15064406 0.0029830509 0.86508477
0.1521356 0.0029830509 0.86508477
0.15414967 0.0029931972 0.86802721
0.15564626 0.0029931972 0.86802721
0.15714286 0.0029931972 0.86802721
0.15863946 0.0029931972 0.86802721
0.16068259 0.0030034129 0.87098974
0.1621843 0.0030034129 0.87098974
0.16368601 0.0030034129 0.87098974
0.16518772 0.0030034129 0.87098974
0.16668943 0.0030034129 0.87098974
0.16876712 0.0030136986 0.87397259
0.17027397 0.0030136986 0.87397259
0.17178082 0.0030136986 0.87397259
0.17328767 0.0030136986 0.87397259
0.17539519 0.0030240549 0.87697595
0.17690721 0.0030240549 0.87697595
0.17841925 0.0030240549 0.87697595
0.18055172 0.0030344827 0.88
0.18269897 0.0030449827 0.88304496
0.18486111 0.0030555555 0.88611114
0.18638889 0.0030555555 0.88611114
0.18791667 0.0030555555 0.88611114
0.19076923 0.0030769231 0.8923077
0.19298245 0.0030877192 0.89543861
0.19452631 0.0030877192 0.89543861
0.19607018 0.0030877192 0.89543861
-0.17850533 0.0046975091 0.90818506
-0.1769395 0.0046975091 0.90818506
-0.17537366 0.0046975091 0.90818506
-0.17257951 0.0046643112 0.90176678
-0.17102474 0.0046643112 0.90176678
-0.16946997 0.0046643112 0.90176678
-0.16732395 0.0046478873 0.89859158
-0.16519298 0.0046315789 0.89543861
-0.16364913 0.0046315789 0.89543861
-0.16210526 0.0046315789 0.89543861
-0.1605614 0.0046315789 0.89543861
-0.15790941 0.004599303 0.8891986
-0.1563763 0.004599303 0.8891986
-0.15484321 0.004599303 0.8891986
-0.15331011 0.004599303 0.8891986
-0.151777 0.004599303 0.8891986
-0.14972222 0.0045833332 0.88611114
-0.14819445 0.0045833332 0.88611114
-0.14666666 0.0045833332 0.88611114
-0.14463668 0.0045674741 0.88304496
-0.14311419 0.0045674741 0.88304496
-0.1415917 0.0045674741 0.88304496
-0.1400692 0.0045674741 0.88304496
-0.13854672 0.0045674741 0.88304496
-0.13702422 0.0045674741 0.88304496
-0.13550173 0.0045674741 0.88304496
-0.13397925 0.0045674741 0.88304496
-0.13245675 0.0045674741 0.88304496
-0.13093425 0.0045674741 0.88304496
-0.12941177 0.0045674741 0.88304496
-0.12788928 0.0045674741 0.88304496
-0.12593104 0.0045517241 0.88
-0.1244138 0.0045517241 0.88
-0.12289655 0.0045517241 0.88
-0.12137931 0.0045517241 0.88
-0.11986207 0.0045517241 0.88
-0.11834483 0.0045517241 0.88
-0.11723183 0.0045674741 0.88304496
-0.11570934 0.0045674741 0.88304496
-0.1137931 0.0045517241 0.88
-0.11227586 0.0045517241 0.88
-0.11075862 0.0045517241 0.88
-0.10924138 0.0045517241 0.88
-0.10809688 0.0045674741 0.88304496
-0.10657439 0.0045674741 0.88304496
-0.1050519 0.0045674741 0.88304496
-0.10352941 0.0045674741 0.88304496
-0.10200692 0.0045674741 0.88304496
-0.10048443 0.0045674741 0.88304496
-0.099305555 0.0045833332 0.88611114
-0.097439446 0.0045674741 0.88304496
-0.09558621 0.0045517241 0.88
-0.093424655 0.004520548 0.87397259
-0.091917805 0.004520548 0.87397259
-0.090410955 0.004520548 0.87397259
-0.08860068 0.0045051193 0.87098974
-0.088611111 0.0045833332 0.88611114
-0.087083332 0.0045833332 0.88611114
-0.085555553 0.0045833332 0.88611114
-0.08432056 0.004599303 0.8891986
-0.082500003 0.0045833332 0.88611114
-0.080972224 0.0045833332 0.88611114
-0.079999998 0.0046153846 0.8923077
-0.078461535 0.0046153846 0.8923077
-0.078571431 0.0047142855 0.91142857
-0.077 0.0047142855 0.91142857
-0.075698927 0.0047311829 0.91469532
-0.074121863 0.0047311829 0.91469532
-0.072544806 0.0047311829 0.91469532
-0.071223021 0.0047482015 0.91798562
-0.069640286 0.0047482015 0.91798562
-0.068057552 0.0047482015 0.91798562
-0.066474818 0.0047482015 0.91798562
-0.062638886 0.0045833332 0.88611114
-0.061111111 0.0045833332 0.88611114
-0.059583332 0.0045833332 0.88611114
-0.058055557 0.0045833332 0.88611114
-0.056527779 0.0045833332 0.88611114
-0.055 0.0045833332 0.88611114
-0.053658538 0.004599303 0.8891986
-0.055 0.0048529413 0.93823528
-0.053579334 0.0048708487 0.94169742
-0.051955719 0.0048708487 0.94169742
-0.050332103 0.0048708487 0.94169742
-0.048708487 0.0048708487 0.94169742
-0.047084872 0.0048708487 0.94169742
-0.045461256 0.0048708487 0.94169742
-0.043837637 0.0048708487 0.94169742
-0.042058822 0.0048529413 0.93823528
-0.040590405 0.0048708487 0.94169742
-0.03882353 0.0048529413 0.93823528
-0.037205882 0.0048529413 0.93823528
-0.035588235 0.0048529413 0.93823528
-0.033970587 0.0048529413 0.93823528
-0.032352943 0.0048529413 0.93823528
-0.030848708 0.0048708487 0.94169742
-0.029117648 0.0048529413 0.93823528
-0.027601477 0.0048708487 0.94169742
-0.025882352 0.0048529413 0.93823528
-0.024264706 0.0048529413 0.93823528
-0.022647059 0.0048529413 0.93823528
-0.021029411 0.0048529413 0.93823528
-0.019411765 0.0048529413 0.93823528
-0.017794117 0.0048529413 0.93823528
-0.016176471 0.0048529413 0.93823528
-0.014558824 0.0048529413 0.93823528
-0.012941176 0.0048529413 0.93823528
-0.011323529 0.0048529413 0.93823528
-0.0097058825 0.0048529413 0.93823528
-0.0080882357 0.0048529413 0.93823528
0.025693431 0.0048175184 0.93138689
0.027399268 0.0048351646 0.93479854
0.029010989 0.0048351646 0.93479854
0.030622711 0.0048351646 0.93479854
0.032234434 0.0048351646 0.93479854
0.033846155 0.0048351646 0.93479854
0.035457876 0.0048351646 0.93479854
0.037069596 0.0048351646 0.93479854
0.038681317 0.0048351646 0.93479854
0.040293042 0.0048351646 0.93479854
0.041904762 0.0048351646 0.93479854
0.043357663 0.0048175184 0.93138689
0.045128204 0.0048351646 0.93479854
0.046739928 0.0048351646 0.93479854
0.048351649 0.0048351646 0.93479854
0.04996337 0.0048351646 0.93479854
0.051386863 0.0048175184 0.93138689
0.052992702 0.0048175184 0.93138689
0.054798536 0.0048351646 0.93479854
0.056204379 0.0048175184 0.93138689
0.058021978 0.0048351646 0.93479854
0.059416059 0.0048175184 0.93138689
0.061021898 0.0048175184 0.93138689
0.06262774 0.0048175184 0.93138689
0.064233579 0.0048175184 0.93138689
0.066080585 0.0048351646 0.93479854
0.06769231 0.0048351646 0.93479854
0.069051094 0.0048175184 0.93138689
0.070656933 0.0048175184 0.93138689
0.072262771 0.0048175184 0.93138689
0.07386861 0.0048175184 0.93138689
0.075199999 0.0048000002 0.92799997
0.076800004 0.0048000002 0.92799997
0.076725982 0.0046975091 0.90818506
0.078291818 0.0046975091 0.90818506
0.079857655 0.0046975091 0.90818506
0.081423491 0.0046975091 0.90818506
0.08298932 0.0046975091 0.90818506
0.084255323 0.004680851 0.90496457
0.085815601 0.004680851 0.90496457
0.087375887 0.004680851 0.90496457
0.088621907 0.0046643112 0.90176678
0.090176679 0.0046643112 0.90176678
0.091731451 0.0046643112 0.90176678
0.093286216 0.0046643112 0.90176678
0.091917805 0.004520548 0.87397259
0.093424655 0.004520548 0.87397259
0.095257729 0.0045360825 0.87697595
0.096769758 0.0045360825 0.87697595
0.098281786 0.0045360825 0.87697595
0.099793814 0.0045360825 0.87697595
0.099932201 0.0044745761 0.86508477
0.10142373 0.0044745761 0.86508477
0.10326531 0.0044897958 0.86802721
0.10476191 0.0044897958 0.86802721
0.10662116 0.0045051193 0.87098974
0.10812287 0.0045051193 0.87098974
0.10962457 0.0045051193 0.87098974
0.11112628 0.0045051193 0.87098974
0.11262798 0.0045051193 0.87098974
0.11412969 0.0045051193 0.87098974
0.11523809 0.0044897958 0.86802721
0.11673469 0.0044897958 0.86802721
0.11823129 0.0044897958 0.86802721
0.11972789 0.0044897958 0.86802721
0.12081356 0.0044745761 0.86508477
0.12272109 0.0044897958 0.86802721
0.12421769 0.0044897958 0.86802721
0.12528813 0.0044745761 0.86508477
0.12677966 0.0044745761 0.86508477
0.12827119 0.0044745761 0.86508477
0.12976271 0.0044745761 0.86508477
0.13125424 0.0044745761 0.86508477
0.13274576 0.0044745761 0.86508477
0.13423729 0.0044745761 0.86508477
0.13572881 0.0044745761 0.86508477
0.13722034 0.0044745761 0.86508477
0.13871187 0.0044745761 0.86508477
0.14020339 0.0044745761 0.86508477
0.14169492 0.0044745761 0.86508477
0.14318644 0.0044745761 0.86508477
0.14467797 0.0044745761 0.86508477
0.14567567 0.0044594593 0.86216217
0.14766102 0.0044745761 0.86508477
0.14915255 0.0044745761 0.86508477
0.15064406 0.0044745761 0.86508477
0.1521356 0.0044745761 0.86508477
0.15362711 0.0044745761 0.86508477
0.15564626 0.0044897958 0.86802721
0.15714286 0.0044897958 0.86802721
0.15863946 0.0044897958 0.86802721
0.16013606 0.0044897958 0.86802721
0.16163266 0.0044897958 0.86802721
0.16368601 0.0045051193 0.87098974
0.16462585 0.0044897958 0.86802721
0.16612245 0.0044897958 0.86802721
0.16819112 0.0045051193 0.87098974
0.16969283 0.0045051193 0.87098974
0.17178082 0.004520548 0.87397259
0.17328767 0.004520548 0.87397259
0.17539519 0.0045360825 0.87697595
0.17690721 0.0045360825 0.87697595
0.17841925 0.0045360825 0.87697595
0.18055172 0.0045517241 0.88
0.18206896 0.0045517241 0.88
0.18486111 0.0045833332 0.88611114
0.18638889 0.0045833332 0.88611114
0.18791667 0.0045833332 0.88611114
0.19076923 0.0046153846 0.8923077
0.1923077 0.0046153846 0.8923077
0.19452631 0.0046315789 0.89543861
0.19607018 0.0046315789 0.89543861
-0.18071428 0.0062857145 0.91142857
-0.17914286 0.0062857145 0.91142857
-0.17757143 0.0062857145 0.91142857
-0.17413427 0.0062190811 0.90176678
-0.17257951 0.0062190811 0.90176678
-0.17102474 0.0062190811 0.90176678
-0.16946997 0.0062190811 0.90176678
-0.16732395 0.0061971829 0.89859158
-0.16519298 0.0061754384 0.89543861
-0.16364913 0.0061754384 0.89543861
-0.16210526 0.0061754384 0.89543861
-0.16 0.0061538462 0.8923077
-0.15846154 0.0061538462 0.8923077
-0.1563763 0.0061324043 0.8891986
-0.15484321 0.0061324043 0.8891986
-0.15277778 0.006111111 0.88611114
-0.15125 0.006111111 0.88611114
-0.14972222 0.006111111 0.88611114
-0.14819445 0.006111111 0.88611114
-0.14615917 0.0060899653 0.88304496
-0.14463668 0.0060899653 0.88304496
-0.14311419 0.0060899653 0.88304496
-0.1415917 0.0060899653 0.88304496
-0.1400692 0.0060899653 0.88304496
-0.13854672 0.0060899653 0.88304496
-0.13702422 0.0060899653 0.88304496
-0.13550173 0.0060899653 0.88304496
-0.13397925 0.0060899653 0.88304496
-0.132 0.0060689654 0.88
-0.13048276 0.0060689654 0.88
-0.12896551 0.0060689654 0.88
-0.12744828 0.0060689654 0.88
-0.12593104 0.0060689654 0.88
-0.1244138 0.0060689654 0.88
-0.12289655 0.0060689654 0.88
-0.12137931 0.0060689654 0.88
-0.11986207 0.0060689654 0.88
-0.11834483 0.0060689654 0.88
-0.11682758 0.0060689654 0.88
-0.11531034 0.0060689654 0.88
-0.1137931 0.0060689654 0.88
-0.11227586 0.0060689654 0.88
-0.11075862 0.0060689654 0.88
-0.10924138 0.0060689654 0.88
-0.10772414 0.0060689654 0.88
-0.10620689 0.0060689654 0.88
-0.1050519 0.0060899653 0.88304496
-0.10352941 0.0060899653 0.88304496
-0.10200692 0.0060899653 0.88304496
-0.10048443 0.0060899653 0.88304496
-0.099305555 0.006111111 0.88611114
-0.097777776 0.006111111 0.88611114
-0.09558621 0.0060689654 0.88
-0.093424655 0.0060273972 0.87397259
-0.091917805 0.0060273972 0.87397259
-0.090410955 0.0060273972 0.87397259
-0.08860068 0.0060068257 0.87098974
-0.088611111 0.006111111 0.88611114
-0.087083332 0.006111111 0.88611114
-0.085555553 0.006111111 0.88611114
-0.083737023 0.0060899653 0.88304496
-0.082500003 0.006111111 0.88611114
-0.080972224 0.006111111 0.88611114
-0.079444446 0.006111111 0.88611114
-0.079857655 0.006263345 0.90818506
-0.078291818 0.006263345 0.90818506
-0.077 0.0062857145 0.91142857
-0.075428568 0.0062857145 0.91142857
-0.074121863 0.0063082436 0.91469532
-0.072544806 0.0063082436 0.91469532
-0.070967741 0.0063082436 0.91469532
-0.069390684 0.0063082436 0.91469532
-0.06781362 0.0063082436 0.91469532
-0.066236556 0.0063082436 0.91469532
-0.063076921 0.0061538462 0.8923077
-0.061111111 0.006111111 0.88611114
-0.059583332 0.006111111 0.88611114
-0.058055557 0.006111111 0.88611114
-0.056527779 0.006111111 0.88611114
-0.055 0.006111111 0.88611114
-0.053658538 0.0061324043 0.8891986
-0.055 0.006470588 0.93823528
-0.053382352 0.006470588 0.93823528
-0.051764704 0.006470588 0.93823528
-0.05014706 0.006470588 0.93823528
-0.048529413 0.006470588 0.93823528
-0.047084872 0.0064944648 0.94169742
-0.045294117 0.006470588 0.93823528
-0.043676469 0.006470588 0.93823528
-0.042058822 0.006470588 0.93823528
-0.040441178 0.006470588 0.93823528
-0.03882353 0.006470588 0.93823528
-0.037205882 0.006470588 0.93823528
-0.035588235 0.006470588 0.93823528
-0.033970587 0.006470588 0.93823528
-0.032352943 0.006470588 0.93823528
-0.030735293 0.006470588 0.93823528
-0.029117648 0.006470588 0.93823528
-0.0275 0.006470588 0.93823528
-0.025882352 0.006470588 0.93823528
-0.024264706 0.006470588 0.93823528
-0.022564102 0.0064468863 0.93479854
-0.020952381 0.0064468863 0.93479854
-0.019411765 0.006470588 0.93823528
-0.017794117 0.006470588 0.93823528
-0.016176471 0.006470588 0.93823528
-0.014558824 0.006470588 0.93823528
-0.012941176 0.006470588 0.93823528
-0.011323529 0.006470588 0.93823528
-0.0097058825 0.006470588 0.93823528
0 0.0064233579 0.93138689
0.022481753 0.0064233579 0.93138689
0.024087591 0.0064233579 0.93138689
0.025693431 0.0064233579 0.93138689
0.02729927 0.0064233579 0.93138689
0.029010989 0.0064468863 0.93479854
0.030622711 0.0064468863 0.93479854
0.032234434 0.0064468863 0.93479854
0.033846155 0.0064468863 0.93479854
0.035457876 0.0064468863 0.93479854
0.037069596 0.0064468863 0.93479854
0.038540147 0.0064233579 0.93138689
0.040145986 0.0064233579 0.93138689
0.041751824 0.0064233579 0.93138689
0.043357663 0.0064233579 0.93138689
0.044963505 0.0064233579 0.93138689
0.046739928 0.0064468863 0.93479854
0.048175182 0.0064233579 0.93138689
0.049781021 0.0064233579 0.93138689
0.051386863 0.0064233579 0.93138689
0.052992702 0.0064233579 0.93138689
0.05459854 0.0064233579 0.93138689
0.056204379 0.0064233579 0.93138689
0.057810217 0.0064233579 0.93138689
0.059416059 0.0064233579 0.93138689
0.061021898 0.0064233579 0.93138689
0.06262774 0.0064233579 0.93138689
0.064233579 0.0064233579 0.93138689
0.065839417 0.0064233579 0.93138689
0.067445256 0.0064233579 0.93138689
0.069051094 0.0064233579 0.93138689
0.070656933 0.0064233579 0.93138689
0.072262771 0.0064233579 0.93138689
