ply
format ascii 1.0
comment PCL generated
element vertex 1345
property float x
property float y
property float z
element camera 0
property float view_px
property float view_py
property float view_pz
property float x_axisx
property float x_axisy
property float x_axisz
property float y_axisx
property float y_axisy
property float y_axisz
property float z_axisx
property float z_axisy
property float z_axisz
property float focal
property float scalex
property float scaley
property float centerx
property float centery
property int viewportx
property int viewporty
property float k1
property float k2
end_header
-0.021666666 -0.07 0.96666664
-0.02 -0.07 0.96666664
-0.018333333 -0.07 0.96666664
-0.016603773 -0.069735847 0.96301889
-0.014887218 -0.069473684 0.95939851
-0.013233082 -0.069473684 0.95939851
-0.011578947 -0.069473684 0.95939851
-0.0099248122 -0.069473684 0.95939851
-0.0083018867 -0.069735847 0.96301889
-0.0066415095 -0.069735847 0.96301889
-0.0049624061 -0.069473684 0.95939851
-0.0033082706 -0.069473684 0.95939851
-0.0016541353 -0.069473684 0.95939851
0 -0.069473684 0.95939851
0.0016603774 -0.069735847 0.96301889
0.0033207547 -0.069735847 0.96301889
0.0049811322 -0.069735847 0.96301889
0.052932329 -0.069473684 0.95939851
0.054586466 -0.069473684 0.95939851
0.056240603 -0.069473684 0.95939851
0.057894737 -0.069473684 0.95939851
0.059548873 -0.069473684 0.95939851
0.060973782 -0.06921348 0.95580524
0.06262172 -0.06921348 0.95580524
0.064269662 -0.06921348 0.95580524
0.065917604 -0.06921348 0.95580524
0.067565545 -0.06921348 0.95580524
0.06921348 -0.06921348 0.95580524
0.070861422 -0.06921348 0.95580524
0.072509363 -0.06921348 0.95580524
0.074157305 -0.06921348 0.95580524
0.075805247 -0.06921348 0.95580524
0.077453181 -0.06921348 0.95580524
0.079101123 -0.06921348 0.95580524
0.080749065 -0.06921348 0.95580524
0.082397006 -0.06921348 0.95580524
0.084044941 -0.06921348 0.95580524
0.085692883 -0.06921348 0.95580524
0.087340824 -0.06921348 0.95580524
0.088988766 -0.06921348 0.95580524
0.090636708 -0.06921348 0.95580524
0.092284642 -0.06921348 0.95580524
0.093932584 -0.06921348 0.95580524
0.095580526 -0.06921348 0.95580524
0.097228467 -0.06921348 0.95580524
0.098876402 -0.06921348 0.95580524
0.10014925 -0.06895522 0.9522388
0.10141264 -0.068698883 0.94869888
0.10266667 -0.068444446 0.94518518
0.10352941 -0.067941174 0.93823528
0.10476191 -0.06769231 0.93479854
0.10637362 -0.06769231 0.93479854
0.10798535 -0.06769231 0.93479854
0.10919708 -0.067445256 0.93138689
0.11080292 -0.067445256 0.93138689
0.11240876 -0.067445256 0.93138689
0.1140146 -0.067445256 0.93138689
0.11478261 -0.06695652 0.92463768
0.11637681 -0.06695652 0.92463768
0.11797102 -0.06695652 0.92463768
0.11956522 -0.06695652 0.92463768
0.12072202 -0.066714801 0.92129964
0.12231047 -0.066714801 0.92129964
0.12389892 -0.066714801 0.92129964
0.12548736 -0.066714801 0.92129964
0.12526691 -0.065765128 0.90818506
0.12549296 -0.065070421 0.89859158
0.12704225 -0.065070421 0.89859158
0.12859155 -0.065070421 0.89859158
0.13014084 -0.065070421 0.89859158
0.13122807 -0.064842105 0.89543861
0.13277192 -0.064842105 0.89543861
0.13431579 -0.064842105 0.89543861
0.13585965 -0.064842105 0.89543861
0.13550173 -0.063944638 0.88304496
0.13797909 -0.064390242 0.8891986
0.1395122 -0.064390242 0.8891986
0.1410453 -0.064390242 0.8891986
0.14307693 -0.064615384 0.8923077
0.14461538 -0.064615384 0.8923077
0.14615385 -0.064615384 0.8923077
0.14769231 -0.064615384 0.8923077
0.1487108 -0.064390242 0.8891986
0.15024391 -0.064390242 0.8891986
0.151777 -0.064390242 0.8891986
0.15331011 -0.064390242 0.8891986
0.15484321 -0.064390242 0.8891986
0.15583333 -0.064166665 0.88611114
0.15736111 -0.064166665 0.88611114
0.15888889 -0.064166665 0.88611114
0.16041666 -0.064166665 0.88611114
0.16194445 -0.064166665 0.88611114
0.16347222 -0.064166665 0.88611114
0.16500001 -0.064166665 0.88611114
0.16652778 -0.064166665 0.88611114
0.16805555 -0.064166665 0.88611114
0.16958334 -0.064166665 0.88611114
0.17111111 -0.064166665 0.88611114
0.17263889 -0.064166665 0.88611114
0.17416666 -0.064166665 0.88611114
0.17569445 -0.064166665 0.88611114
0.17722222 -0.064166665 0.88611114
0.17874999 -0.064166665 0.88611114
0.18027778 -0.064166665 0.88611114
0.18243903 -0.064390242 0.8891986
0.18397212 -0.064390242 0.8891986
0.18550523 -0.064390242 0.8891986
0.18703833 -0.064390242 0.8891986
0.18923077 -0.064615384 0.8923077
0.19076923 -0.064615384 0.8923077
0.1923077 -0.064615384 0.8923077
0.19452631 -0.064842105 0.89543861
0.19607018 -0.064842105 0.89543861
0.19761403 -0.064842105 0.89543861
0.19915789 -0.064842105 0.89543861
-0.1626087 -0.065362319 0.92463768
-0.1610145 -0.065362319 0.92463768
-0.1594203 -0.065362319 0.92463768
-0.15782608 -0.065362319 0.92463768
-0.15566787 -0.065126352 0.92129964
-0.15407942 -0.065126352 0.92129964
-0.15249097 -0.065126352 0.92129964
-0.14982079 -0.064659499 0.91469532
-0.14771429 -0.064428568 0.91142857
-0.14614286 -0.064428568 0.91142857
-0.14405695 -0.064199291 0.90818506
-0.1424911 -0.064199291 0.90818506
-0.14092527 -0.064199291 0.90818506
-0.13886525 -0.063971631 0.90496457
-0.13730496 -0.063971631 0.90496457
-0.13574468 -0.063971631 0.90496457
-0.13418439 -0.063971631 0.90496457
-0.13215548 -0.063745581 0.90176678
-0.13060071 -0.063745581 0.90176678
-0.12904593 -0.063745581 0.90176678
-0.12749116 -0.063745581 0.90176678
-0.12593639 -0.063745581 0.90176678
-0.12438162 -0.063745581 0.90176678
-0.12282685 -0.063745581 0.90176678
-0.12127209 -0.063745581 0.90176678
-0.11971731 -0.063745581 0.90176678
-0.11816254 -0.063745581 0.90176678
-0.11619718 -0.063521124 0.89859158
-0.11505301 -0.063745581 0.90176678
-0.11349823 -0.063745581 0.90176678
-0.11194346 -0.063745581 0.90176678
-0.11 -0.063521124 0.89859158
-0.1084507 -0.063521124 0.89859158
-0.10690141 -0.063521124 0.89859158
-0.10535211 -0.063521124 0.89859158
-0.10380282 -0.063521124 0.89859158
-0.10261484 -0.063745581 0.90176678
-0.10106007 -0.063745581 0.90176678
-0.099505298 -0.063745581 0.90176678
-0.097950533 -0.063745581 0.90176678
-0.096395761 -0.063745581 0.90176678
-0.094840989 -0.063745581 0.90176678
-0.093286216 -0.063745581 0.90176678
-0.091731451 -0.063745581 0.90176678
-0.090496451 -0.063971631 0.90496457
-0.088309862 -0.063521124 0.89859158
-0.086760566 -0.063521124 0.89859158
-0.085815601 -0.063971631 0.90496457
-0.084255323 -0.063971631 0.90496457
-0.082695037 -0.063971631 0.90496457
-0.081134751 -0.063971631 0.90496457
-0.079857655 -0.064199291 0.90818506
-0.078291818 -0.064199291 0.90818506
-0.076453902 -0.063971631 0.90496457
-0.074893616 -0.063971631 0.90496457
-0.073594309 -0.064199291 0.90818506
-0.072028473 -0.064199291 0.90818506
-0.071223021 -0.064892083 0.91798562
-0.0704 -0.0656 0.92799997
-0.068800002 -0.0656 0.92799997
-0.067199998 -0.0656 0.92799997
-0.065839417 -0.065839417 0.93138689
-0.064233579 -0.065839417 0.93138689
-0.062857144 -0.066080585 0.93479854
-0.061245423 -0.066080585 0.93479854
-0.059633698 -0.066080585 0.93479854
-0.058021978 -0.066080585 0.93479854
-0.056617647 -0.066323526 0.93823528
-0.055 -0.066323526 0.93823528
-0.053382352 -0.066323526 0.93823528
-0.051764704 -0.066323526 0.93823528
-0.05014706 -0.066323526 0.93823528
-0.049253732 -0.067313433 0.9522388
-0.047611941 -0.067313433 0.9522388
-0.045970149 -0.067313433 0.9522388
-0.044494383 -0.067565545 0.95580524
-0.043007519 -0.067819551 0.95939851
-0.041353382 -0.067819551 0.95939851
-0.039849058 -0.068075471 0.96301889
-0.038188681 -0.068075471 0.96301889
-0.0365283 -0.068075471 0.96301889
-0.034867924 -0.068075471 0.96301889
-0.033207547 -0.068075471 0.96301889
-0.03131086 -0.067565545 0.95580524
-0.029662922 -0.067565545 0.95580524
-0.028014982 -0.067565545 0.95580524
-0.02636704 -0.067565545 0.95580524
-0.0247191 -0.067565545 0.95580524
-0.023071161 -0.067565545 0.95580524
-0.021666666 -0.068333335 0.96666664
-0.02 -0.068333335 0.96666664
-0.018333333 -0.068333335 0.96666664
-0.016541352 -0.067819551 0.95939851
-0.014887218 -0.067819551 0.95939851
-0.01318352 -0.067565545 0.95580524
-0.011578947 -0.067819551 0.95939851
-0.0099248122 -0.067819551 0.95939851
-0.0082706762 -0.067819551 0.95939851
-0.0066165412 -0.067819551 0.95939851
-0.0049624061 -0.067819551 0.95939851
-0.0033082706 -0.067819551 0.95939851
-0.0016541353 -0.067819551 0.95939851
0 -0.067819551 0.95939851
0.0016603774 -0.068075471 0.96301889
0.054586466 -0.067819551 0.95939851
0.056240603 -0.067819551 0.95939851
0.057894737 -0.067819551 0.95939851
0.059325844 -0.067565545 0.95580524
0.060973782 -0.067565545 0.95580524
0.06262172 -0.067565545 0.95580524
0.064269662 -0.067565545 0.95580524
0.065917604 -0.067565545 0.95580524
0.067565545 -0.067565545 0.95580524
0.06921348 -0.067565545 0.95580524
0.070861422 -0.067565545 0.95580524
0.072509363 -0.067565545 0.95580524
0.074157305 -0.067565545 0.95580524
0.075522386 -0.067313433 0.9522388
0.077453181 -0.067565545 0.95580524
0.079101123 -0.067565545 0.95580524
0.080749065 -0.067565545 0.95580524
0.082089551 -0.067313433 0.9522388
0.084044941 -0.067565545 0.95580524
0.085692883 -0.067565545 0.95580524
0.087340824 -0.067565545 0.95580524
0.088988766 -0.067565545 0.95580524
0.090636708 -0.067565545 0.95580524
0.092284642 -0.067565545 0.95580524
0.093582086 -0.067313433 0.9522388
0.095580526 -0.067565545 0.95580524
0.097228467 -0.067565545 0.95580524
0.098507464 -0.067313433 0.9522388
0.10014925 -0.067313433 0.9522388
0.10141264 -0.067063197 0.94869888
0.10228782 -0.066568263 0.94169742
0.10352941 -0.066323526 0.93823528
0.10476191 -0.066080585 0.93479854
0.10637362 -0.066080585 0.93479854
0.10759124 -0.065839417 0.93138689
0.10919708 -0.065839417 0.93138689
0.11080292 -0.065839417 0.93138689
0.112 -0.0656 0.92799997
0.1136 -0.0656 0.92799997
0.11478261 -0.065362319 0.92463768
0.11637681 -0.065362319 0.92463768
0.11797102 -0.065362319 0.92463768
0.11956522 -0.065362319 0.92463768
0.12115942 -0.065362319 0.92463768
0.12231047 -0.065126352 0.92129964
0.12389892 -0.065126352 0.92129964
0.12282685 -0.063745581 0.90176678
0.12438162 -0.063745581 0.90176678
0.12549296 -0.063521124 0.89859158
0.12704225 -0.063521124 0.89859158
0.12859155 -0.063521124 0.89859158
0.12968421 -0.063298248 0.89543861
0.13122807 -0.063298248 0.89543861
0.13277192 -0.063298248 0.89543861
0.13384615 -0.063076921 0.8923077
0.13397925 -0.062422145 0.88304496
0.13550173 -0.062422145 0.88304496
0.1375 -0.062638886 0.88611114
0.1395122 -0.062857144 0.8891986
0.14153846 -0.063076921 0.8923077
0.14307693 -0.063076921 0.8923077
0.14461538 -0.063076921 0.8923077
0.14615385 -0.063076921 0.8923077
0.1471777 -0.062857144 0.8891986
0.1487108 -0.062857144 0.8891986
0.15024391 -0.062857144 0.8891986
0.15125 -0.062638886 0.88611114
0.15277778 -0.062638886 0.88611114
0.15430556 -0.062638886 0.88611114
0.15583333 -0.062638886 0.88611114
0.15736111 -0.062638886 0.88611114
0.15888889 -0.062638886 0.88611114
0.16041666 -0.062638886 0.88611114
0.16194445 -0.062638886 0.88611114
0.16347222 -0.062638886 0.88611114
0.16500001 -0.062638886 0.88611114
0.16652778 -0.062638886 0.88611114
0.16805555 -0.062638886 0.88611114
0.16958334 -0.062638886 0.88611114
0.17111111 -0.062638886 0.88611114
0.17263889 -0.062638886 0.88611114
0.17416666 -0.062638886 0.88611114
0.17569445 -0.062638886 0.88611114
0.17722222 -0.062638886 0.88611114
0.17874999 -0.062638886 0.88611114
0.18027778 -0.062638886 0.88611114
0.18180555 -0.062638886 0.88611114
0.18397212 -0.062857144 0.8891986
0.18486111 -0.062638886 0.88611114
0.18703833 -0.062857144 0.8891986
0.18857142 -0.062857144 0.8891986
0.19076923 -0.063076921 0.8923077
0.1923077 -0.063076921 0.8923077
0.19384615 -0.063076921 0.8923077
0.19538462 -0.063076921 0.8923077
0.19692308 -0.063076921 0.8923077
0.19846153 -0.063076921 0.8923077
0.2 -0.063076921 0.8923077
-0.1610145 -0.063768119 0.92463768
-0.1594203 -0.063768119 0.92463768
-0.15782608 -0.063768119 0.92463768
-0.15510792 -0.063309349 0.91798562
-0.15352517 -0.063309349 0.91798562
-0.15194245 -0.063309349 0.91798562
-0.14928572 -0.062857144 0.91142857
-0.14771429 -0.062857144 0.91142857
-0.14614286 -0.062857144 0.91142857
-0.14405695 -0.062633455 0.90818506
-0.1424911 -0.062633455 0.90818506
-0.14042553 -0.062411349 0.90496457
-0.13886525 -0.062411349 0.90496457
-0.13730496 -0.062411349 0.90496457
-0.13574468 -0.062411349 0.90496457
-0.13371025 -0.062190812 0.90176678
-0.13215548 -0.062190812 0.90176678
-0.13060071 -0.062190812 0.90176678
-0.12904593 -0.062190812 0.90176678
-0.12749116 -0.062190812 0.90176678
-0.12593639 -0.062190812 0.90176678
-0.12394366 -0.061971832 0.89859158
-0.12239437 -0.061971832 0.89859158
-0.12084507 -0.061971832 0.89859158
-0.11929578 -0.061971832 0.89859158
-0.11774648 -0.061971832 0.89859158
-0.11619718 -0.061971832 0.89859158
-0.11464789 -0.061971832 0.89859158
-0.11309859 -0.061971832 0.89859158
-0.1115493 -0.061971832 0.89859158
-0.10961404 -0.061754387 0.89543861
-0.1084507 -0.061971832 0.89859158
-0.10690141 -0.061971832 0.89859158
-0.10535211 -0.061971832 0.89859158
-0.10380282 -0.061971832 0.89859158
-0.10225352 -0.061971832 0.89859158
-0.10106007 -0.062190812 0.90176678
-0.099154927 -0.061971832 0.89859158
-0.097605631 -0.061971832 0.89859158
-0.096395761 -0.062190812 0.90176678
-0.094840989 -0.062190812 0.90176678
-0.093286216 -0.062190812 0.90176678
-0.091731451 -0.062190812 0.90176678
-0.090176679 -0.062190812 0.90176678
-0.088309862 -0.061971832 0.89859158
-0.086760566 -0.061971832 0.89859158
-0.085815601 -0.062411349 0.90496457
-0.084255323 -0.062411349 0.90496457
-0.082695037 -0.062411349 0.90496457
-0.081134751 -0.062411349 0.90496457
-0.079574466 -0.062411349 0.90496457
-0.078014188 -0.062411349 0.90496457
-0.076453902 -0.062411349 0.90496457
-0.074893616 -0.062411349 0.90496457
-0.073594309 -0.062633455 0.90818506
-0.072028473 -0.062633455 0.90818506
-0.07173913 -0.063768119 0.92463768
-0.070144929 -0.063768119 0.92463768
-0.068800002 -0.064000003 0.92799997
-0.067199998 -0.064000003 0.92799997
-0.065839417 -0.064233579 0.93138689
-0.064233579 -0.064233579 0.93138689
-0.06262774 -0.064233579 0.93138689
-0.061245423 -0.064468868 0.93479854
-0.059633698 -0.064468868 0.93479854
-0.058021978 -0.064468868 0.93479854
-0.056617647 -0.064705886 0.93823528
-0.055 -0.064705886 0.93823528
-0.053382352 -0.064705886 0.93823528
-0.051764704 -0.064705886 0.93823528
-0.05014706 -0.064705886 0.93823528
-0.048708487 -0.064944647 0.94169742
-0.04725926 -0.065185182 0.94518518
-0.045970149 -0.065671645 0.9522388
-0.044494383 -0.065917604 0.95580524
-0.042846441 -0.065917604 0.95580524
-0.041198503 -0.065917604 0.95580524
-0.039699249 -0.06616541 0.95939851
-0.038045112 -0.06616541 0.95939851
-0.0365283 -0.066415094 0.96301889
-0.034736842 -0.06616541 0.95939851
-0.033082705 -0.06616541 0.95939851
-0.03131086 -0.065917604 0.95580524
-0.029662922 -0.065917604 0.95580524
-0.028014982 -0.065917604 0.95580524
-0.02636704 -0.065917604 0.95580524
-0.0247191 -0.065917604 0.95580524
-0.023071161 -0.065917604 0.95580524
-0.021666666 -0.06666667 0.96666664
-0.02 -0.06666667 0.96666664
-0.018195489 -0.06616541 0.95939851
-0.016541352 -0.06616541 0.95939851
-0.014887218 -0.06616541 0.95939851
-0.01318352 -0.065917604 0.95580524
-0.01153558 -0.065917604 0.95580524
-0.0098876404 -0.065917604 0.95580524
-0.0082706762 -0.06616541 0.95939851
-0.0066165412 -0.06616541 0.95939851
-0.0049624061 -0.06616541 0.95939851
-0.0033082706 -0.06616541 0.95939851
-0.0016541353 -0.06616541 0.95939851
0 -0.06616541 0.95939851
0.057677902 -0.065917604 0.95580524
0.059325844 -0.065917604 0.95580524
0.060973782 -0.065917604 0.95580524
0.06262172 -0.065917604 0.95580524
0.06402985 -0.065671645 0.9522388
0.065671645 -0.065671645 0.9522388
0.067565545 -0.065917604 0.95580524
0.06921348 -0.065917604 0.95580524
0.070597015 -0.065671645 0.9522388
0.072238803 -0.065671645 0.9522388
0.073880598 -0.065671645 0.9522388
0.075522386 -0.065671645 0.9522388
0.077164181 -0.065671645 0.9522388
0.078805968 -0.065671645 0.9522388
0.080447763 -0.065671645 0.9522388
0.082089551 -0.065671645 0.9522388
0.083731346 -0.065671645 0.9522388
0.085692883 -0.065917604 0.95580524
0.087014928 -0.065671645 0.9522388
0.088656716 -0.065671645 0.9522388
0.090636708 -0.065917604 0.95580524
0.091940299 -0.065671645 0.9522388
0.093582086 -0.065671645 0.9522388
0.095223881 -0.065671645 0.9522388
0.096865669 -0.065671645 0.9522388
0.098507464 -0.065671645 0.9522388
0.10014925 -0.065671645 0.9522388
0.10103704 -0.065185182 0.94518518
0.10228782 -0.064944647 0.94169742
0.10352941 -0.064705886 0.93823528
0.10476191 -0.064468868 0.93479854
0.10637362 -0.064468868 0.93479854
0.10798535 -0.064468868 0.93479854
0.10919708 -0.064233579 0.93138689
0.1104 -0.064000003 0.92799997
0.112 -0.064000003 0.92799997
0.1136 -0.064000003 0.92799997
0.11478261 -0.063768119 0.92463768
0.11637681 -0.063768119 0.92463768
0.11797102 -0.063768119 0.92463768
0.11956522 -0.063768119 0.92463768
0.12072202 -0.063537903 0.92129964
0.12231047 -0.063537903 0.92129964
0.12301075 -0.063082434 0.91469532
0.12282685 -0.062190812 0.90176678
0.12438162 -0.062190812 0.90176678
0.12549296 -0.061971832 0.89859158
0.1265965 -0.061754387 0.89543861
0.12814035 -0.061754387 0.89543861
0.12968421 -0.061754387 0.89543861
0.13122807 -0.061754387 0.89543861
0.13277192 -0.061754387 0.89543861
0.13384615 -0.061538462 0.8923077
0.13351724 -0.060689654 0.88
0.13550173 -0.060899653 0.88304496
0.1375 -0.061111111 0.88611114
0.1395122 -0.061324041 0.8891986
0.14153846 -0.061538462 0.8923077
0.14307693 -0.061538462 0.8923077
0.14461538 -0.061538462 0.8923077
0.14564461 -0.061324041 0.8891986
0.1471777 -0.061324041 0.8891986
0.1487108 -0.061324041 0.8891986
0.15024391 -0.061324041 0.8891986
0.15125 -0.061111111 0.88611114
0.15277778 -0.061111111 0.88611114
0.15430556 -0.061111111 0.88611114
0.15583333 -0.061111111 0.88611114
0.15736111 -0.061111111 0.88611114
0.15888889 -0.061111111 0.88611114
0.16041666 -0.061111111 0.88611114
0.16138408 -0.060899653 0.88304496
0.16290657 -0.060899653 0.88304496
0.16442907 -0.060899653 0.88304496
0.16595155 -0.060899653 0.88304496
0.16805555 -0.061111111 0.88611114
0.16958334 -0.061111111 0.88611114
0.17111111 -0.061111111 0.88611114
0.17263889 -0.061111111 0.88611114
0.17416666 -0.061111111 0.88611114
0.17569445 -0.061111111 0.88611114
0.17722222 -0.061111111 0.88611114
0.17874999 -0.061111111 0.88611114
0.18027778 -0.061111111 0.88611114
0.18180555 -0.061111111 0.88611114
0.18333334 -0.061111111 0.88611114
0.18486111 -0.061111111 0.88611114
0.18638889 -0.061111111 0.88611114
0.18791667 -0.061111111 0.88611114
0.19076923 -0.061538462 0.8923077
0.1923077 -0.061538462 0.8923077
0.19384615 -0.061538462 0.8923077
0.19538462 -0.061538462 0.8923077
0.19692308 -0.061538462 0.8923077
0.19846153 -0.061538462 0.8923077
-0.1610145 -0.062173914 0.92463768
-0.1594203 -0.062173914 0.92463768
-0.15782608 -0.062173914 0.92463768
-0.15510792 -0.061726619 0.91798562
-0.15352517 -0.061726619 0.91798562
-0.15194245 -0.061726619 0.91798562
-0.14928572 -0.061285716 0.91142857
-0.14771429 -0.061285716 0.91142857
-0.14614286 -0.061285716 0.91142857
-0.14405695 -0.061067615 0.90818506
-0.1424911 -0.061067615 0.90818506
-0.14042553 -0.060851064 0.90496457
-0.13886525 -0.060851064 0.90496457
-0.13681979 -0.060636044 0.90176678
-0.13526502 -0.060636044 0.90176678
-0.13371025 -0.060636044 0.90176678
-0.13215548 -0.060636044 0.90176678
-0.13060071 -0.060636044 0.90176678
-0.12904593 -0.060636044 0.90176678
-0.12704225 -0.060422536 0.89859158
-0.12549296 -0.060422536 0.89859158
-0.12394366 -0.060422536 0.89859158
-0.12239437 -0.060422536 0.89859158
-0.12084507 -0.060422536 0.89859158
-0.11929578 -0.060422536 0.89859158
-0.11774648 -0.060422536 0.89859158
-0.11619718 -0.060422536 0.89859158
-0.11464789 -0.060422536 0.89859158
-0.11309859 -0.060422536 0.89859158
-0.1115493 -0.060422536 0.89859158
-0.10961404 -0.060210526 0.89543861
-0.10807017 -0.060210526 0.89543861
-0.10690141 -0.060422536 0.89859158
-0.10535211 -0.060422536 0.89859158
-0.10380282 -0.060422536 0.89859158
-0.10225352 -0.060422536 0.89859158
-0.10070422 -0.060422536 0.89859158
-0.099154927 -0.060422536 0.89859158
-0.097605631 -0.060422536 0.89859158
-0.096395761 -0.060636044 0.90176678
-0.094840989 -0.060636044 0.90176678
-0.093286216 -0.060636044 0.90176678
-0.091731451 -0.060636044 0.90176678
-0.090176679 -0.060636044 0.90176678
-0.088621907 -0.060636044 0.90176678
-0.086760566 -0.060422536 0.89859158
-0.085815601 -0.060851064 0.90496457
-0.084255323 -0.060851064 0.90496457
-0.082695037 -0.060851064 0.90496457
-0.081134751 -0.060851064 0.90496457
-0.079574466 -0.060851064 0.90496457
-0.078014188 -0.060851064 0.90496457
-0.076453902 -0.060851064 0.90496457
-0.074893616 -0.060851064 0.90496457
-0.073594309 -0.061067615 0.90818506
-0.072028473 -0.061067615 0.90818506
-0.070462637 -0.061067615 0.90818506
-0.070144929 -0.062173914 0.92463768
-0.068550728 -0.062173914 0.92463768
-0.067199998 -0.062399998 0.92799997
-0.065839417 -0.06262774 0.93138689
-0.064233579 -0.06262774 0.93138689
-0.06262774 -0.06262774 0.93138689
-0.061021898 -0.06262774 0.93138689
-0.059633698 -0.062857144 0.93479854
-0.058021978 -0.062857144 0.93479854
-0.056410257 -0.062857144 0.93479854
-0.054798536 -0.062857144 0.93479854
-0.053382352 -0.063088238 0.93823528
-0.051764704 -0.063088238 0.93823528
-0.05014706 -0.063088238 0.93823528
-0.048708487 -0.063321032 0.94169742
-0.04725926 -0.063555554 0.94518518
-0.045629628 -0.063555554 0.94518518
-0.044494383 -0.064269662 0.95580524
-0.042846441 -0.064269662 0.95580524
-0.041353382 -0.064511277 0.95939851
-0.039699249 -0.064511277 0.95939851
-0.038045112 -0.064511277 0.95939851
-0.036390979 -0.064511277 0.95939851
-0.034736842 -0.064511277 0.95939851
-0.033082705 -0.064511277 0.95939851
-0.03131086 -0.064269662 0.95580524
-0.029662922 -0.064269662 0.95580524
-0.028014982 -0.064269662 0.95580524
-0.02636704 -0.064269662 0.95580524
-0.0247191 -0.064269662 0.95580524
-0.019849624 -0.064511277 0.95939851
-0.018195489 -0.064511277 0.95939851
-0.016541352 -0.064511277 0.95939851
-0.014887218 -0.064511277 0.95939851
-0.01318352 -0.064269662 0.95580524
-0.01153558 -0.064269662 0.95580524
-0.0099248122 -0.064511277 0.95939851
-0.0082706762 -0.064511277 0.95939851
-0.0066165412 -0.064511277 0.95939851
-0.0049624061 -0.064511277 0.95939851
-0.00329588 -0.064269662 0.95580524
-0.00164794 -0.064269662 0.95580524
0.057677902 -0.064269662 0.95580524
0.059325844 -0.064269662 0.95580524
0.060973782 -0.064269662 0.95580524
0.062388059 -0.06402985 0.9522388
0.06402985 -0.06402985 0.9522388
0.065671645 -0.06402985 0.9522388
0.067313433 -0.06402985 0.9522388
0.06895522 -0.06402985 0.9522388
0.070597015 -0.06402985 0.9522388
0.072238803 -0.06402985 0.9522388
0.073880598 -0.06402985 0.9522388
0.075522386 -0.06402985 0.9522388
0.077164181 -0.06402985 0.9522388
0.078805968 -0.06402985 0.9522388
0.080447763 -0.06402985 0.9522388
0.082089551 -0.06402985 0.9522388
0.083731346 -0.06402985 0.9522388
0.085373133 -0.06402985 0.9522388
0.087014928 -0.06402985 0.9522388
0.088656716 -0.06402985 0.9522388
0.090298511 -0.06402985 0.9522388
0.091940299 -0.06402985 0.9522388
0.093582086 -0.06402985 0.9522388
0.095223881 -0.06402985 0.9522388
0.096865669 -0.06402985 0.9522388
0.098507464 -0.06402985 0.9522388
0.099407405 -0.063555554 0.94518518
0.10103704 -0.063555554 0.94518518
0.10266667 -0.063555554 0.94518518
0.10352941 -0.063088238 0.93823528
0.10514706 -0.063088238 0.93823528
0.10637362 -0.062857144 0.93479854
0.1072 -0.062399998 0.92799997
0.1088 -0.062399998 0.92799997
0.1104 -0.062399998 0.92799997
0.112 -0.062399998 0.92799997
0.1136 -0.062399998 0.92799997
0.11478261 -0.062173914 0.92463768
0.11595668 -0.061949458 0.92129964
0.11754513 -0.061949458 0.92129964
0.11913358 -0.061949458 0.92129964
0.12072202 -0.061949458 0.92129964
0.12143369 -0.061505377 0.91469532
0.12301075 -0.061505377 0.91469532
0.12458781 -0.061505377 0.91469532
0.12438162 -0.060636044 0.90176678
0.12549296 -0.060422536 0.89859158
0.1265965 -0.060210526 0.89543861
0.12814035 -0.060210526 0.89543861
0.12923077 -0.059999999 0.8923077
0.13076924 -0.059999999 0.8923077
0.13277192 -0.060210526 0.89543861
0.13384615 -0.059999999 0.8923077
0.13351724 -0.059172414 0.88
0.13503449 -0.059172414 0.88
0.1375 -0.059583332 0.88611114
0.1395122 -0.059790939 0.8891986
0.1410453 -0.059790939 0.8891986
0.14307693 -0.059999999 0.8923077
0.1441115 -0.059790939 0.8891986
0.14513889 -0.059583332 0.88611114
0.1471777 -0.059790939 0.8891986
0.1487108 -0.059790939 0.8891986
0.14972222 -0.059583332 0.88611114
0.15125 -0.059583332 0.88611114
0.15277778 -0.059583332 0.88611114
0.15377162 -0.059377164 0.88304496
0.15529412 -0.059377164 0.88304496
0.15736111 -0.059583332 0.88611114
0.1583391 -0.059377164 0.88304496
0.15986159 -0.059377164 0.88304496
0.16138408 -0.059377164 0.88304496
0.16290657 -0.059377164 0.88304496
0.16442907 -0.059377164 0.88304496
0.16595155 -0.059377164 0.88304496
0.16747405 -0.059377164 0.88304496
0.16899654 -0.059377164 0.88304496
0.17051902 -0.059377164 0.88304496
0.17204152 -0.059377164 0.88304496
0.17416666 -0.059583332 0.88611114
0.1750865 -0.059377164 0.88304496
0.17660899 -0.059377164 0.88304496
0.17813149 -0.059377164 0.88304496
0.18027778 -0.059583332 0.88611114
0.18180555 -0.059583332 0.88611114
0.18333334 -0.059583332 0.88611114
0.18486111 -0.059583332 0.88611114
0.18638889 -0.059583332 0.88611114
0.18791667 -0.059583332 0.88611114
0.18944444 -0.059583332 0.88611114
0.1923077 -0.059999999 0.8923077
0.19384615 -0.059999999 0.8923077
0.19470383 -0.059790939 0.8891986
0.19623694 -0.059790939 0.8891986
0.19777003 -0.059790939 0.8891986
-0.15985611 -0.060143884 0.91798562
-0.15827338 -0.060143884 0.91798562
-0.15669064 -0.060143884 0.91798562
-0.15455197 -0.059928317 0.91469532
-0.15352517 -0.060143884 0.91798562
-0.15085714 -0.059714288 0.91142857
-0.14928572 -0.059714288 0.91142857
-0.14771429 -0.059714288 0.91142857
-0.14614286 -0.059714288 0.91142857
-0.14405695 -0.059501778 0.90818506
-0.1424911 -0.059501778 0.90818506
-0.14042553 -0.059290782 0.90496457
-0.13837455 -0.059081271 0.90176678
-0.13681979 -0.059081271 0.90176678
-0.13526502 -0.059081271 0.90176678
-0.13371025 -0.059081271 0.90176678
-0.13215548 -0.059081271 0.90176678
-0.13014084 -0.05887324 0.89859158
-0.12859155 -0.05887324 0.89859158
-0.12704225 -0.05887324 0.89859158
-0.12549296 -0.05887324 0.89859158
-0.12394366 -0.05887324 0.89859158
-0.12239437 -0.05887324 0.89859158
-0.12084507 -0.05887324 0.89859158
-0.11929578 -0.05887324 0.89859158
-0.11774648 -0.05887324 0.89859158
-0.11578947 -0.058666665 0.89543861
-0.11424562 -0.058666665 0.89543861
-0.11270175 -0.058666665 0.89543861
-0.11115789 -0.058666665 0.89543861
-0.10961404 -0.058666665 0.89543861
-0.10807017 -0.058666665 0.89543861
-0.10652632 -0.058666665 0.89543861
-0.10498246 -0.058666665 0.89543861
-0.10343859 -0.058666665 0.89543861
-0.10189474 -0.058666665 0.89543861
-0.10070422 -0.05887324 0.89859158
-0.098807015 -0.058666665 0.89543861
-0.097263157 -0.058666665 0.89543861
-0.096056335 -0.05887324 0.89859158
-0.094840989 -0.059081271 0.90176678
-0.093286216 -0.059081271 0.90176678
-0.091731451 -0.059081271 0.90176678
-0.090176679 -0.059081271 0.90176678
-0.088621907 -0.059081271 0.90176678
-0.086760566 -0.05887324 0.89859158
-0.08432056 -0.058257841 0.8891986
-0.083957598 -0.059081271 0.90176678
-0.082402825 -0.059081271 0.90176678
-0.080848053 -0.059081271 0.90176678
-0.079574466 -0.059290782 0.90496457
-0.078014188 -0.059290782 0.90496457
-0.076453902 -0.059290782 0.90496457
-0.074893616 -0.059290782 0.90496457
-0.07333333 -0.059290782 0.90496457
-0.072028473 -0.059501778 0.90818506
-0.070462637 -0.059501778 0.90818506
-0.0688968 -0.059501778 0.90818506
-0.068800002 -0.060800001 0.92799997
-0.067199998 -0.060800001 0.92799997
-0.0656 -0.060800001 0.92799997
-0.064233579 -0.061021898 0.93138689
-0.06262774 -0.061021898 0.93138689
-0.061021898 -0.061021898 0.93138689
-0.059416059 -0.061021898 0.93138689
-0.057810217 -0.061021898 0.93138689
-0.056410257 -0.061245423 0.93479854
-0.054798536 -0.061245423 0.93479854
-0.053186812 -0.061245423 0.93479854
-0.051764704 -0.061470587 0.93823528
-0.05014706 -0.061470587 0.93823528
-0.048708487 -0.061697416 0.94169742
-0.04725926 -0.061925925 0.94518518
-0.045629628 -0.061925925 0.94518518
-0.044328358 -0.062388059 0.9522388
-0.043007519 -0.062857144 0.95939851
-0.041353382 -0.062857144 0.95939851
-0.039699249 -0.062857144 0.95939851
-0.038045112 -0.062857144 0.95939851
-0.036390979 -0.062857144 0.95939851
-0.03460674 -0.06262172 0.95580524
-0.032958802 -0.06262172 0.95580524
-0.03131086 -0.06262172 0.95580524
-0.029662922 -0.06262172 0.95580524
-0.028014982 -0.06262172 0.95580524
-0.02636704 -0.06262172 0.95580524
-0.019849624 -0.062857144 0.95939851
-0.018195489 -0.062857144 0.95939851
-0.016541352 -0.062857144 0.95939851
-0.014776119 -0.062388059 0.9522388
-0.013134329 -0.062388059 0.9522388
-0.011492537 -0.062388059 0.9522388
-0.0099248122 -0.062857144 0.95939851
-0.0082706762 -0.062857144 0.95939851
-0.0066165412 -0.062857144 0.95939851
-0.0049438202 -0.06262172 0.95580524
-0.00329588 -0.06262172 0.95580524
-0.00164794 -0.06262172 0.95580524
0 -0.06262172 0.95580524
0.059104476 -0.062388059 0.9522388
0.060746267 -0.062388059 0.9522388
0.062388059 -0.062388059 0.9522388
0.06402985 -0.062388059 0.9522388
0.065671645 -0.062388059 0.9522388
0.067313433 -0.062388059 0.9522388
0.06895522 -0.062388059 0.9522388
0.070597015 -0.062388059 0.9522388
0.072238803 -0.062388059 0.9522388
0.073880598 -0.062388059 0.9522388
0.075522386 -0.062388059 0.9522388
0.077164181 -0.062388059 0.9522388
0.078805968 -0.062388059 0.9522388
0.080447763 -0.062388059 0.9522388
0.082089551 -0.062388059 0.9522388
0.083731346 -0.062388059 0.9522388
0.085373133 -0.062388059 0.9522388
0.086691447 -0.062156133 0.94869888
0.08832714 -0.062156133 0.94869888
0.090298511 -0.062388059 0.9522388
0.091940299 -0.062388059 0.9522388
0.093582086 -0.062388059 0.9522388
0.095223881 -0.062388059 0.9522388
0.096865669 -0.062388059 0.9522388
0.098507464 -0.062388059 0.9522388
0.099776953 -0.062156133 0.94869888
0.10103704 -0.061925925 0.94518518
0.10228782 -0.061697416 0.94169742
0.10352941 -0.061470587 0.93823528
0.10514706 -0.061470587 0.93823528
0.1056 -0.060800001 0.92799997
0.1072 -0.060800001 0.92799997
0.1088 -0.060800001 0.92799997
0.1104 -0.060800001 0.92799997
0.1115942 -0.06057971 0.92463768
0.11318841 -0.06057971 0.92463768
0.11478261 -0.06057971 0.92463768
0.11595668 -0.060361009 0.92129964
0.11754513 -0.060361009 0.92129964
0.11913358 -0.060361009 0.92129964
0.12028777 -0.060143884 0.91798562
0.12143369 -0.059928317 0.91469532
0.12301075 -0.059928317 0.91469532
0.12326241 -0.059290782 0.90496457
0.12350877 -0.058666665 0.89543861
0.12505263 -0.058666665 0.89543861
0.1265965 -0.058666665 0.89543861
0.12769231 -0.058461539 0.8923077
0.12923077 -0.058461539 0.8923077
0.13076924 -0.058461539 0.8923077
0.13230769 -0.058461539 0.8923077
0.13384615 -0.058461539 0.8923077
0.13397925 -0.057854671 0.88304496
0.13550173 -0.057854671 0.88304496
0.13702422 -0.057854671 0.88304496
0.1395122 -0.058257841 0.8891986
0.1410453 -0.058257841 0.8891986
0.14257839 -0.058257841 0.8891986
0.1441115 -0.058257841 0.8891986
0.14513889 -0.058055557 0.88611114
0.14666666 -0.058055557 0.88611114
0.14819445 -0.058055557 0.88611114
0.14972222 -0.058055557 0.88611114
0.15125 -0.058055557 0.88611114
0.15224913 -0.057854671 0.88304496
0.15377162 -0.057854671 0.88304496
0.15529412 -0.057854671 0.88304496
0.1568166 -0.057854671 0.88304496
0.1583391 -0.057854671 0.88304496
0.15986159 -0.057854671 0.88304496
0.16138408 -0.057854671 0.88304496
0.16290657 -0.057854671 0.88304496
0.16442907 -0.057854671 0.88304496
0.16537932 -0.057655171 0.88
0.16747405 -0.057854671 0.88304496
0.16899654 -0.057854671 0.88304496
0.17051902 -0.057854671 0.88304496
0.17204152 -0.057854671 0.88304496
0.17356402 -0.057854671 0.88304496
0.1750865 -0.057854671 0.88304496
0.17660899 -0.057854671 0.88304496
0.17813149 -0.057854671 0.88304496
0.17965397 -0.057854671 0.88304496
0.18117647 -0.057854671 0.88304496
0.18269897 -0.057854671 0.88304496
0.18486111 -0.058055557 0.88611114
0.18638889 -0.058055557 0.88611114
0.18791667 -0.058055557 0.88611114
0.18944444 -0.058055557 0.88611114
0.19097222 -0.058055557 0.88611114
0.19317073 -0.058257841 0.8891986
0.19470383 -0.058257841 0.8891986
0.19623694 -0.058257841 0.8891986
0.19777003 -0.058257841 0.8891986
0.19930314 -0.058257841 0.8891986
-0.15985611 -0.05856115 0.91798562
-0.15827338 -0.05856115 0.91798562
-0.15669064 -0.05856115 0.91798562
-0.15455197 -0.058351256 0.91469532
-0.1529749 -0.058351256 0.91469532
-0.15085714 -0.058142856 0.91142857
-0.14928572 -0.058142856 0.91142857
-0.14718862 -0.057935942 0.90818506
-0.14510639 -0.057730496 0.90496457
-0.1435461 -0.057730496 0.90496457
-0.14198582 -0.057730496 0.90496457
-0.13992932 -0.057526503 0.90176678
-0.13837455 -0.057526503 0.90176678
-0.13681979 -0.057526503 0.90176678
-0.13526502 -0.057526503 0.90176678
-0.13371025 -0.057526503 0.90176678
-0.13169014 -0.057323944 0.89859158
-0.13014084 -0.057323944 0.89859158
-0.12859155 -0.057323944 0.89859158
-0.1265965 -0.057122808 0.89543861
-0.12505263 -0.057122808 0.89543861
-0.12394366 -0.057323944 0.89859158
-0.12196491 -0.057122808 0.89543861
-0.12042105 -0.057122808 0.89543861
-0.11929578 -0.057323944 0.89859158
-0.11733333 -0.057122808 0.89543861
-0.11578947 -0.057122808 0.89543861
-0.11424562 -0.057122808 0.89543861
-0.11270175 -0.057122808 0.89543861
-0.11115789 -0.057122808 0.89543861
-0.10961404 -0.057122808 0.89543861
-0.10807017 -0.057122808 0.89543861
-0.10652632 -0.057122808 0.89543861
-0.10498246 -0.057122808 0.89543861
-0.10343859 -0.057122808 0.89543861
-0.10189474 -0.057122808 0.89543861
-0.10035088 -0.057122808 0.89543861
-0.098807015 -0.057122808 0.89543861
-0.097263157 -0.057122808 0.89543861
-0.096056335 -0.057323944 0.89859158
-0.094507039 -0.057323944 0.89859158
-0.09295775 -0.057323944 0.89859158
-0.091408454 -0.057323944 0.89859158
-0.090176679 -0.057526503 0.90176678
-0.088309862 -0.057323944 0.89859158
-0.086760566 -0.057323944 0.89859158
-0.08432056 -0.056724738 0.8891986
-0.082787454 -0.056724738 0.8891986
-0.082402825 -0.057526503 0.90176678
-0.080848053 -0.057526503 0.90176678
-0.079293288 -0.057526503 0.90176678
-0.077738516 -0.057526503 0.90176678
-0.076183744 -0.057526503 0.90176678
-0.074628979 -0.057526503 0.90176678
-0.07333333 -0.057730496 0.90496457
-0.071773052 -0.057730496 0.90496457
-0.070462637 -0.057935942 0.90818506
-0.0688968 -0.057935942 0.90818506
-0.068550728 -0.058985509 0.92463768
-0.06695652 -0.058985509 0.92463768
-0.065362319 -0.058985509 0.92463768
-0.064000003 -0.0592 0.92799997
-0.062399998 -0.0592 0.92799997
-0.061021898 -0.059416059 0.93138689
-0.059416059 -0.059416059 0.93138689
-0.058021978 -0.059633698 0.93479854
-0.056410257 -0.059633698 0.93479854
-0.054798536 -0.059633698 0.93479854
-0.053186812 -0.059633698 0.93479854
-0.051575091 -0.059633698 0.93479854
-0.05014706 -0.059852943 0.93823528
-0.048529413 -0.059852943 0.93823528
-0.04725926 -0.060296297 0.94518518
-0.045970149 -0.060746267 0.9522388
-0.044328358 -0.060746267 0.9522388
-0.042686567 -0.060746267 0.9522388
-0.041353382 -0.061203007 0.95939851
-0.039699249 -0.061203007 0.95939851
-0.038045112 -0.061203007 0.95939851
-0.036254682 -0.060973782 0.95580524
-0.03460674 -0.060973782 0.95580524
-0.032958802 -0.060973782 0.95580524
-0.03131086 -0.060973782 0.95580524
-0.029662922 -0.060973782 0.95580524
-0.027806692 -0.060520448 0.94869888
-0.026171004 -0.060520448 0.94869888
-0.024535315 -0.060520448 0.94869888
-0.022899628 -0.060520448 0.94869888
-0.02126394 -0.060520448 0.94869888
-0.019628253 -0.060520448 0.94869888
-0.016417911 -0.060746267 0.9522388
-0.014776119 -0.060746267 0.9522388
-0.013134329 -0.060746267 0.9522388
-0.011492537 -0.060746267 0.9522388
-0.009850746 -0.060746267 0.9522388
-0.0082089556 -0.060746267 0.9522388
-0.0065917601 -0.060973782 0.95580524
-0.0049438202 -0.060973782 0.95580524
-0.00329588 -0.060973782 0.95580524
-0.00164794 -0.060973782 0.95580524
0.060746267 -0.060746267 0.9522388
0.062388059 -0.060746267 0.9522388
0.06402985 -0.060746267 0.9522388
0.065671645 -0.060746267 0.9522388
0.067313433 -0.060746267 0.9522388
0.06895522 -0.060746267 0.9522388
0.070334576 -0.060520448 0.94869888
0.072238803 -0.060746267 0.9522388
0.073880598 -0.060746267 0.9522388
0.075522386 -0.060746267 0.9522388
0.077164181 -0.060746267 0.9522388
0.078805968 -0.060746267 0.9522388
0.080447763 -0.060746267 0.9522388
0.082089551 -0.060746267 0.9522388
0.083731346 -0.060746267 0.9522388
0.085055761 -0.060520448 0.94869888
0.086691447 -0.060520448 0.94869888
0.08832714 -0.060520448 0.94869888
0.089962825 -0.060520448 0.94869888
0.091598511 -0.060520448 0.94869888
0.093582086 -0.060746267 0.9522388
0.094869889 -0.060520448 0.94869888
0.096505575 -0.060520448 0.94869888
0.09814126 -0.060520448 0.94869888
0.099776953 -0.060520448 0.94869888
0.10103704 -0.060296297 0.94518518
0.10228782 -0.0600738 0.94169742
0.10315018 -0.059633698 0.93479854
0.10437956 -0.059416059 0.93138689
0.1059854 -0.059416059 0.93138689
0.1072 -0.0592 0.92799997
0.1088 -0.0592 0.92799997
0.11 -0.058985509 0.92463768
0.1115942 -0.058985509 0.92463768
0.11318841 -0.058985509 0.92463768
0.11478261 -0.058985509 0.92463768
0.11595668 -0.058772564 0.92129964
0.11754513 -0.058772564 0.92129964
0.11870503 -0.05856115 0.91798562
0.12028777 -0.05856115 0.91798562
0.1218705 -0.05856115 0.91798562
0.12170213 -0.057730496 0.90496457
0.12326241 -0.057730496 0.90496457
0.12350877 -0.057122808 0.89543861
0.12505263 -0.057122808 0.89543861
0.1265965 -0.057122808 0.89543861
0.12769231 -0.056923077 0.8923077
0.12878048 -0.056724738 0.8891986
0.13076924 -0.056923077 0.8923077
0.13230769 -0.056923077 0.8923077
0.13384615 -0.056923077 0.8923077
0.13397925 -0.056332178 0.88304496
0.13550173 -0.056332178 0.88304496
0.13702422 -0.056332178 0.88304496
0.1395122 -0.056724738 0.8891986
0.1410453 -0.056724738 0.8891986
0.14257839 -0.056724738 0.8891986
0.1441115 -0.056724738 0.8891986
0.14513889 -0.056527779 0.88611114
0.14666666 -0.056527779 0.88611114
0.14819445 -0.056527779 0.88611114
0.14972222 -0.056527779 0.88611114
0.15072665 -0.056332178 0.88304496
0.15224913 -0.056332178 0.88304496
0.15377162 -0.056332178 0.88304496
0.15529412 -0.056332178 0.88304496
0.1568166 -0.056332178 0.88304496
0.1583391 -0.056332178 0.88304496
0.15986159 -0.056332178 0.88304496
0.16082759 -0.056137931 0.88
0.16234483 -0.056137931 0.88
0.16386206 -0.056137931 0.88
0.16537932 -0.056137931 0.88
0.16689655 -0.056137931 0.88
0.16899654 -0.056332178 0.88304496
0.17051902 -0.056332178 0.88304496
0.17204152 -0.056332178 0.88304496
0.17356402 -0.056332178 0.88304496
0.1750865 -0.056332178 0.88304496
0.17660899 -0.056332178 0.88304496
0.17751724 -0.056137931 0.88
0.17965397 -0.056332178 0.88304496
0.18117647 -0.056332178 0.88304496
0.18269897 -0.056332178 0.88304496
0.18486111 -0.056527779 0.88611114
0.18638889 -0.056527779 0.88611114
0.18791667 -0.056527779 0.88611114
0.18944444 -0.056527779 0.88611114
0.19097222 -0.056527779 0.88611114
0.19317073 -0.056724738 0.8891986
0.19470383 -0.056724738 0.8891986
0.19623694 -0.056724738 0.8891986
0.19777003 -0.056724738 0.8891986
-0.16143885 -0.056978416 0.91798562
-0.15985611 -0.056978416 0.91798562
-0.15827338 -0.056978416 0.91798562
-0.15669064 -0.056978416 0.91798562
-0.15455197 -0.056774195 0.91469532
-0.1529749 -0.056774195 0.91469532
-0.15085714 -0.056571428 0.91142857
-0.14928572 -0.056571428 0.91142857
-0.14718862 -0.056370106 0.90818506
-0.14510639 -0.056170214 0.90496457
-0.1435461 -0.056170214 0.90496457
-0.14198582 -0.056170214 0.90496457
-0.13992932 -0.055971731 0.90176678
-0.13837455 -0.055971731 0.90176678
-0.13681979 -0.055971731 0.90176678
-0.13526502 -0.055971731 0.90176678
-0.13323943 -0.055774648 0.89859158
-0.13169014 -0.055774648 0.89859158
-0.13014084 -0.055774648 0.89859158
-0.12859155 -0.055774648 0.89859158
-0.1265965 -0.055578947 0.89543861
-0.12505263 -0.055578947 0.89543861
-0.12350877 -0.055578947 0.89543861
-0.12196491 -0.055578947 0.89543861
-0.12042105 -0.055578947 0.89543861
-0.11887719 -0.055578947 0.89543861
-0.11733333 -0.055578947 0.89543861
-0.11578947 -0.055578947 0.89543861
-0.11424562 -0.055578947 0.89543861
-0.11270175 -0.055578947 0.89543861
-0.11115789 -0.055578947 0.89543861
-0.10961404 -0.055578947 0.89543861
-0.10807017 -0.055578947 0.89543861
-0.10652632 -0.055578947 0.89543861
-0.10498246 -0.055578947 0.89543861
-0.10307692 -0.055384614 0.8923077
-0.10189474 -0.055578947 0.89543861
-0.10035088 -0.055578947 0.89543861
-0.098807015 -0.055578947 0.89543861
-0.097263157 -0.055578947 0.89543861
-0.0957193 -0.055578947 0.89543861
-0.094175436 -0.055578947 0.89543861
-0.09295775 -0.055774648 0.89859158
-0.091408454 -0.055774648 0.89859158
-0.089859158 -0.055774648 0.89859158
-0.088309862 -0.055774648 0.89859158
-0.086760566 -0.055774648 0.89859158
-0.084615387 -0.055384614 0.8923077
-0.082787454 -0.055191636 0.8891986
-0.082402825 -0.055971731 0.90176678
-0.080848053 -0.055971731 0.90176678
-0.079293288 -0.055971731 0.90176678
-0.077738516 -0.055971731 0.90176678
-0.076183744 -0.055971731 0.90176678
-0.074628979 -0.055971731 0.90176678
-0.07333333 -0.056170214 0.90496457
-0.071773052 -0.056170214 0.90496457
-0.070462637 -0.056370106 0.90818506
-0.070144929 -0.057391305 0.92463768
-0.068550728 -0.057391305 0.92463768
-0.06695652 -0.057391305 0.92463768
-0.065362319 -0.057391305 0.92463768
-0.064000003 -0.057599999 0.92799997
-0.062399998 -0.057599999 0.92799997
-0.060800001 -0.057599999 0.92799997
-0.059416059 -0.057810217 0.93138689
-0.057810217 -0.057810217 0.93138689
-0.056410257 -0.058021978 0.93479854
-0.05459854 -0.057810217 0.93138689
-0.053186812 -0.058021978 0.93479854
-0.051575091 -0.058021978 0.93479854
-0.05014706 -0.058235295 0.93823528
-0.048529413 -0.058235295 0.93823528
-0.04725926 -0.058666665 0.94518518
-0.045799255 -0.058884759 0.94869888
-0.044328358 -0.059104476 0.9522388
-0.042846441 -0.059325844 0.95580524
-0.041198503 -0.059325844 0.95580524
-0.039550561 -0.059325844 0.95580524
-0.037902623 -0.059325844 0.95580524
-0.036254682 -0.059325844 0.95580524
-0.03460674 -0.059325844 0.95580524
-0.032958802 -0.059325844 0.95580524
-0.03131086 -0.059325844 0.95580524
-0.029442379 -0.058884759 0.94869888
-0.027806692 -0.058884759 0.94869888
-0.026171004 -0.058884759 0.94869888
-0.024535315 -0.058884759 0.94869888
-0.022899628 -0.058884759 0.94869888
-0.02126394 -0.058884759 0.94869888
-0.019628253 -0.058884759 0.94869888
-0.017992565 -0.058884759 0.94869888
-0.016356878 -0.058884759 0.94869888
-0.01472119 -0.058884759 0.94869888
-0.013085502 -0.058884759 0.94869888
-0.011492537 -0.059104476 0.9522388
-0.009850746 -0.059104476 0.9522388
-0.0082089556 -0.059104476 0.9522388
-0.0065671643 -0.059104476 0.9522388
-0.0049438202 -0.059325844 0.95580524
-0.00329588 -0.059325844 0.95580524
-0.00164794 -0.059325844 0.95580524
0.060746267 -0.059104476 0.9522388
0.062156133 -0.058884759 0.94869888
0.063791819 -0.058884759 0.94869888
0.065427512 -0.058884759 0.94869888
0.067313433 -0.059104476 0.9522388
0.06895522 -0.059104476 0.9522388
0.070334576 -0.058884759 0.94869888
0.071970262 -0.058884759 0.94869888
0.073880598 -0.059104476 0.9522388
0.075522386 -0.059104476 0.9522388
0.078805968 -0.059104476 0.9522388
0.080447763 -0.059104476 0.9522388
0.082089551 -0.059104476 0.9522388
0.083731346 -0.059104476 0.9522388
0.085055761 -0.058884759 0.94869888
0.086691447 -0.058884759 0.94869888
0.08832714 -0.058884759 0.94869888
0.089962825 -0.058884759 0.94869888
0.091598511 -0.058884759 0.94869888
0.093234204 -0.058884759 0.94869888
0.094869889 -0.058884759 0.94869888
0.096505575 -0.058884759 0.94869888
0.09814126 -0.058884759 0.94869888
0.099776953 -0.058884759 0.94869888
0.10103704 -0.058666665 0.94518518
0.10153846 -0.058021978 0.93479854
0.10315018 -0.058021978 0.93479854
0.10476191 -0.058021978 0.93479854
0.1059854 -0.057810217 0.93138689
0.10681159 -0.057391305 0.92463768
0.1084058 -0.057391305 0.92463768
0.10960289 -0.057184115 0.92129964
0.11119133 -0.057184115 0.92129964
0.11277978 -0.057184115 0.92129964
0.11436823 -0.057184115 0.92129964
0.11595668 -0.057184115 0.92129964
0.1171223 -0.056978416 0.91798562
0.11870503 -0.056978416 0.91798562
0.12028777 -0.056978416 0.91798562
0.121 -0.056571428 0.91142857
0.12257143 -0.056571428 0.91142857
0.12153846 -0.055384614 0.8923077
0.12307692 -0.055384614 0.8923077
0.12418118 -0.055191636 0.8891986
0.12571429 -0.055191636 0.8891986
0.12724739 -0.055191636 0.8891986
0.12878048 -0.055191636 0.8891986
0.13031359 -0.055191636 0.8891986
0.1318467 -0.055191636 0.8891986
0.13384615 -0.055384614 0.8923077
0.13397925 -0.05480969 0.88304496
0.13550173 -0.05480969 0.88304496
0.1375 -0.055 0.88611114
0.1395122 -0.055191636 0.8891986
0.1410453 -0.055191636 0.8891986
0.14208333 -0.055 0.88611114
0.14361112 -0.055 0.88611114
0.14513889 -0.055 0.88611114
0.14666666 -0.055 0.88611114
0.14819445 -0.055 0.88611114
0.14920415 -0.05480969 0.88304496
0.15072665 -0.05480969 0.88304496
0.15224913 -0.05480969 0.88304496
0.15377162 -0.05480969 0.88304496
0.15529412 -0.05480969 0.88304496
0.15627587 -0.054620691 0.88
0.1577931 -0.054620691 0.88
0.15931034 -0.054620691 0.88
0.16082759 -0.054620691 0.88
0.16234483 -0.054620691 0.88
0.16386206 -0.054620691 0.88
0.16537932 -0.054620691 0.88
0.16689655 -0.054620691 0.88
0.16841379 -0.054620691 0.88
0.17051902 -0.05480969 0.88304496
0.17204152 -0.05480969 0.88304496
0.17356402 -0.05480969 0.88304496
0.1750865 -0.05480969 0.88304496
0.176 -0.054620691 0.88
0.17751724 -0.054620691 0.88
0.17965397 -0.05480969 0.88304496
0.18117647 -0.05480969 0.88304496
0.18206896 -0.054620691 0.88
0.18486111 -0.055 0.88611114
0.18638889 -0.055 0.88611114
0.18791667 -0.055 0.88611114
0.18944444 -0.055 0.88611114
0.19097222 -0.055 0.88611114
0.1925 -0.055 0.88611114
0.19470383 -0.055191636 0.8891986
0.19623694 -0.055191636 0.8891986
0.19777003 -0.055191636 0.8891986
0.19930314 -0.055191636 0.8891986
-0.15985611 -0.055395685 0.91798562
-0.15827338 -0.055395685 0.91798562
-0.15669064 -0.055395685 0.91798562
-0.15455197 -0.055197131 0.91469532
-0.1529749 -0.055197131 0.91469532
-0.15085714 -0.055 0.91142857
-0.14822695 -0.054609928 0.90496457
-0.14666666 -0.054609928 0.90496457
-0.14510639 -0.054609928 0.90496457
-0.1435461 -0.054609928 0.90496457
-0.1414841 -0.054416962 0.90176678
-0.13992932 -0.054416962 0.90176678
-0.13837455 -0.054416962 0.90176678
-0.13633803 -0.054225352 0.89859158
-0.13478874 -0.054225352 0.89859158
-0.13323943 -0.054225352 0.89859158
-0.13169014 -0.054225352 0.89859158
-0.12968421 -0.054035086 0.89543861
-0.12814035 -0.054035086 0.89543861
-0.1265965 -0.054035086 0.89543861
-0.12505263 -0.054035086 0.89543861
-0.12307692 -0.053846154 0.8923077
-0.12196491 -0.054035086 0.89543861
-0.12042105 -0.054035086 0.89543861
-0.11887719 -0.054035086 0.89543861
-0.11692308 -0.053846154 0.8923077
-0.11538462 -0.053846154 0.8923077
-0.11424562 -0.054035086 0.89543861
-0.11270175 -0.054035086 0.89543861
-0.11076923 -0.053846154 0.8923077
-0.10923077 -0.053846154 0.8923077
-0.10807017 -0.054035086 0.89543861
-0.10652632 -0.054035086 0.89543861
-0.10461538 -0.053846154 0.8923077
-0.10307692 -0.053846154 0.8923077
-0.10153846 -0.053846154 0.8923077
-0.10035088 -0.054035086 0.89543861
-0.098807015 -0.054035086 0.89543861
-0.096923076 -0.053846154 0.8923077
-0.0957193 -0.054035086 0.89543861
-0.094175436 -0.054035086 0.89543861
-0.09295775 -0.054225352 0.89859158
-0.091408454 -0.054225352 0.89859158
-0.089859158 -0.054225352 0.89859158
-0.088309862 -0.054225352 0.89859158
-0.086153843 -0.053846154 0.8923077
-0.084615387 -0.053846154 0.8923077
-0.083076924 -0.053846154 0.8923077
-0.082112677 -0.054225352 0.89859158
-0.080848053 -0.054416962 0.90176678
-0.079014085 -0.054225352 0.89859158
-0.077464789 -0.054225352 0.89859158
-0.075915493 -0.054225352 0.89859158
-0.074628979 -0.054416962 0.90176678
-0.073074207 -0.054416962 0.90176678
