ply
format ascii 1.0
comment PCL generated
element vertex 1336
property float x
property float y
property float z
element camera 0
property float view_px
property float view_py
property float view_pz
property float x_axisx
property float x_axisy
property float x_axisz
property float y_axisx
property float y_axisy
property float y_axisz
property float z_axisx
property float z_axisy
property float z_axisz
property float focal
property float scalex
property float scaley
property float centerx
property float centery
property int viewportx
property int viewporty
property float k1
property float k2
end_header
-0.096546762 -0.036402877 0.91798562
-0.094964027 -0.036402877 0.91798562
-0.093381293 -0.036402877 0.91798562
-0.091798559 -0.036402877 0.91798562
-0.090215825 -0.036402877 0.91798562
-0.08863309 -0.036402877 0.91798562
-0.087050363 -0.036402877 0.91798562
-0.085467629 -0.036402877 0.91798562
-0.083884895 -0.036402877 0.91798562
-0.082302161 -0.036402877 0.91798562
-0.081010833 -0.036534294 0.92129964
-0.079422385 -0.036534294 0.92129964
-0.077275984 -0.036272403 0.91469532
-0.075428568 -0.036142856 0.91142857
-0.074657038 -0.036534294 0.92129964
-0.073068589 -0.036534294 0.92129964
-0.071480148 -0.036534294 0.92129964
-0.070144929 -0.036666665 0.92463768
-0.068550728 -0.036666665 0.92463768
-0.06695652 -0.036666665 0.92463768
-0.065362319 -0.036666665 0.92463768
-0.063537903 -0.036534294 0.92129964
-0.062173914 -0.036666665 0.92463768
-0.06057971 -0.036666665 0.92463768
-0.059633698 -0.037069596 0.93479854
-0.058450185 -0.037343174 0.94169742
-0.057037037 -0.037481483 0.94518518
-0.055407409 -0.037481483 0.94518518
-0.053777777 -0.037481483 0.94518518
-0.052342009 -0.037620816 0.94869888
-0.05070632 -0.037620816 0.94869888
-0.049253732 -0.037761193 0.9522388
-0.047611941 -0.037761193 0.9522388
-0.045970149 -0.037761193 0.9522388
-0.044328358 -0.037761193 0.9522388
-0.042846441 -0.037902623 0.95580524
-0.041198503 -0.037902623 0.95580524
-0.039699249 -0.038045112 0.95939851
-0.038188681 -0.038188681 0.96301889
-0.0365283 -0.038188681 0.96301889
-0.035 -0.038333334 0.96666664
-0.033460077 -0.038479086 0.97034222
-0.031787071 -0.038479086 0.97034222
-0.030344827 -0.038773946 0.97777778
-0.028659005 -0.038773946 0.97777778
-0.02697318 -0.038773946 0.97777778
-0.025287356 -0.038773946 0.97777778
-0.023601532 -0.038773946 0.97777778
-0.02191571 -0.038773946 0.97777778
-0.020229885 -0.038773946 0.97777778
-0.018473282 -0.038625956 0.97404581
-0.016730038 -0.038479086 0.97034222
-0.015172414 -0.038773946 0.97777778
-0.013435114 -0.038625956 0.97404581
-0.011755725 -0.038625956 0.97404581
-0.010076336 -0.038625956 0.97404581
-0.0083969468 -0.038625956 0.97404581
-0.0067175571 -0.038625956 0.97404581
-0.0050381678 -0.038625956 0.97404581
-0.0033716476 -0.038773946 0.97777778
-0.0016858238 -0.038773946 0.97777778
0 -0.038773946 0.97777778
0.0016858238 -0.038773946 0.97777778
0.0033716476 -0.038773946 0.97777778
0.0050381678 -0.038625956 0.97404581
0.0067432951 -0.038773946 0.97777778
0.0084291184 -0.038773946 0.97777778
0.010114943 -0.038773946 0.97777778
0.011800766 -0.038773946 0.97777778
0.01348659 -0.038773946 0.97777778
0.015289575 -0.039073359 0.9853282
0.016988417 -0.039073359 0.9853282
0.018687259 -0.039073359 0.9853282
0.060923077 -0.038923077 0.98153847
0.062615387 -0.038923077 0.98153847
0.06430769 -0.038923077 0.98153847
0.065747127 -0.038773946 0.97777778
0.067432947 -0.038773946 0.97777778
0.069118775 -0.038773946 0.97777778
0.070266157 -0.038479086 0.97034222
0.071939163 -0.038479086 0.97034222
0.07389313 -0.038625956 0.97404581
0.075285174 -0.038479086 0.97034222
0.076958172 -0.038479086 0.97034222
0.078931294 -0.038625956 0.97404581
0.080304183 -0.038479086 0.97034222
0.081977189 -0.038479086 0.97034222
0.083650187 -0.038479086 0.97034222
0.085323192 -0.038479086 0.97034222
0.086996198 -0.038479086 0.97034222
0.088669203 -0.038479086 0.97034222
0.090342209 -0.038479086 0.97034222
0.092015207 -0.038479086 0.97034222
0.093688212 -0.038479086 0.97034222
0.095361218 -0.038479086 0.97034222
0.097034223 -0.038479086 0.97034222
0.098707221 -0.038479086 0.97034222
0.10038023 -0.038479086 0.97034222
0.10205323 -0.038479086 0.97034222
0.10372624 -0.038479086 0.97034222
0.10539924 -0.038479086 0.97034222
0.10707224 -0.038479086 0.97034222
0.10833333 -0.038333334 0.96666664
0.11 -0.038333334 0.96666664
0.11166666 -0.038333334 0.96666664
0.11333334 -0.038333334 0.96666664
0.11370786 -0.037902623 0.95580524
0.1153558 -0.037902623 0.95580524
0.11700375 -0.037902623 0.95580524
0.11776952 -0.037620816 0.94869888
0.1194052 -0.037620816 0.94869888
0.1210409 -0.037620816 0.94869888
0.12222222 -0.037481483 0.94518518
0.12385185 -0.037481483 0.94518518
0.12501845 -0.037343174 0.94169742
0.12664206 -0.037343174 0.94169742
0.12826568 -0.037343174 0.94169742
0.12988929 -0.037343174 0.94169742
0.13102941 -0.037205882 0.93823528
0.13264705 -0.037205882 0.93823528
0.13377289 -0.037069596 0.93479854
0.13538462 -0.037069596 0.93479854
0.13600001 -0.036800001 0.92799997
0.1366065 -0.036534294 0.92129964
0.1372043 -0.036272403 0.91469532
0.13878137 -0.036272403 0.91469532
0.14035842 -0.036272403 0.91469532
0.14142857 -0.036142856 0.91142857
0.14300001 -0.036142856 0.91142857
0.14457142 -0.036142856 0.91142857
0.14614286 -0.036142856 0.91142857
0.14771429 -0.036142856 0.91142857
0.14718311 -0.035633802 0.89859158
0.14925796 -0.035759717 0.90176678
0.15188612 -0.036014237 0.90818506
0.15345196 -0.036014237 0.90818506
0.15501779 -0.036014237 0.90818506
0.15658364 -0.036014237 0.90818506
0.15814947 -0.036014237 0.90818506
0.15914893 -0.035886526 0.90496457
0.16070922 -0.035886526 0.90496457
0.1622695 -0.035886526 0.90496457
0.16325088 -0.035759717 0.90176678
0.16480565 -0.035759717 0.90176678
0.16636042 -0.035759717 0.90176678
0.1679152 -0.035759717 0.90176678
0.16946997 -0.035759717 0.90176678
0.17102474 -0.035759717 0.90176678
0.17257951 -0.035759717 0.90176678
0.17413427 -0.035759717 0.90176678
0.17568904 -0.035759717 0.90176678
0.17724381 -0.035759717 0.90176678
0.17879859 -0.035759717 0.90176678
0.18035336 -0.035759717 0.90176678
0.18190813 -0.035759717 0.90176678
0.1834629 -0.035759717 0.90176678
0.18501768 -0.035759717 0.90176678
0.18657243 -0.035759717 0.90176678
0.1881272 -0.035759717 0.90176678
0.18968198 -0.035759717 0.90176678
0.19123675 -0.035759717 0.90176678
0.19279152 -0.035759717 0.90176678
0.19434629 -0.035759717 0.90176678
0.19590107 -0.035759717 0.90176678
0.19745582 -0.035759717 0.90176678
0.1990106 -0.035759717 0.90176678
0.20056537 -0.035759717 0.90176678
-0.14827839 -0.035457876 0.93479854
-0.14666666 -0.035457876 0.93479854
-0.14505495 -0.035457876 0.93479854
-0.14344323 -0.035457876 0.93479854
-0.1418315 -0.035457876 0.93479854
-0.1392 -0.0352 0.92799997
-0.1376 -0.0352 0.92799997
-0.13600001 -0.0352 0.92799997
-0.1344 -0.0352 0.92799997
-0.13231884 -0.035072464 0.92463768
-0.13072464 -0.035072464 0.92463768
-0.12913044 -0.035072464 0.92463768
-0.12707581 -0.034945849 0.92129964
-0.12548736 -0.034945849 0.92129964
-0.12389892 -0.034945849 0.92129964
-0.12231047 -0.034945849 0.92129964
-0.12072202 -0.034945849 0.92129964
-0.11827957 -0.034695342 0.91469532
-0.11670251 -0.034695342 0.91469532
-0.11512545 -0.034695342 0.91469532
-0.11354839 -0.034695342 0.91469532
-0.11197133 -0.034695342 0.91469532
-0.11079137 -0.034820143 0.91798562
-0.10920864 -0.034820143 0.91798562
-0.10724014 -0.034695342 0.91469532
-0.10566308 -0.034695342 0.91469532
-0.10408602 -0.034695342 0.91469532
-0.10250896 -0.034695342 0.91469532
-0.1009319 -0.034695342 0.91469532
-0.099354841 -0.034695342 0.91469532
-0.097777776 -0.034695342 0.91469532
-0.096200719 -0.034695342 0.91469532
-0.094964027 -0.034820143 0.91798562
-0.093381293 -0.034820143 0.91798562
-0.091469534 -0.034695342 0.91469532
-0.090215825 -0.034820143 0.91798562
-0.08863309 -0.034820143 0.91798562
-0.087050363 -0.034820143 0.91798562
-0.085467629 -0.034820143 0.91798562
-0.083884895 -0.034820143 0.91798562
-0.082302161 -0.034820143 0.91798562
-0.080719426 -0.034820143 0.91798562
-0.079136692 -0.034820143 0.91798562
-0.077553958 -0.034820143 0.91798562
-0.075971223 -0.034820143 0.91798562
-0.073594309 -0.0344484 0.90818506
-0.073068589 -0.034945849 0.92129964
-0.071480148 -0.034945849 0.92129964
-0.069891699 -0.034945849 0.92129964
-0.068550728 -0.035072464 0.92463768
-0.066714801 -0.034945849 0.92129964
-0.065126352 -0.034945849 0.92129964
-0.063537903 -0.034945849 0.92129964
-0.062173914 -0.035072464 0.92463768
-0.06057971 -0.035072464 0.92463768
-0.059633698 -0.035457876 0.93479854
-0.058450185 -0.035719559 0.94169742
-0.056826569 -0.035719559 0.94169742
-0.055407409 -0.035851851 0.94518518
-0.053777777 -0.035851851 0.94518518
-0.052342009 -0.035985131 0.94869888
-0.05070632 -0.035985131 0.94869888
-0.049253732 -0.036119401 0.9522388
-0.047611941 -0.036119401 0.9522388
-0.045970149 -0.036119401 0.9522388
-0.044328358 -0.036119401 0.9522388
-0.042846441 -0.036254682 0.95580524
-0.041044775 -0.036119401 0.9522388
-0.039402984 -0.036119401 0.9522388
-0.038188681 -0.0365283 0.96301889
-0.0365283 -0.0365283 0.96301889
-0.035 -0.036666665 0.96666664
-0.033333335 -0.036666665 0.96666664
-0.032030649 -0.037088122 0.97777778
-0.030344827 -0.037088122 0.97777778
-0.028659005 -0.037088122 0.97777778
-0.02697318 -0.037088122 0.97777778
-0.025287356 -0.037088122 0.97777778
-0.023601532 -0.037088122 0.97777778
-0.02191571 -0.037088122 0.97777778
-0.020152671 -0.036946565 0.97404581
-0.018473282 -0.036946565 0.97404581
-0.016730038 -0.036806084 0.97034222
-0.015057034 -0.036806084 0.97034222
-0.013435114 -0.036946565 0.97404581
-0.011755725 -0.036946565 0.97404581
-0.010076336 -0.036946565 0.97404581
-0.0083969468 -0.036946565 0.97404581
-0.0067175571 -0.036946565 0.97404581
-0.0050381678 -0.036946565 0.97404581
-0.0033716476 -0.037088122 0.97777778
-0.0016858238 -0.037088122 0.97777778
0 -0.037088122 0.97777778
0.0016858238 -0.037088122 0.97777778
0.0033587785 -0.036946565 0.97404581
0.0050381678 -0.036946565 0.97404581
0.0067432951 -0.037088122 0.97777778
0.0084291184 -0.037088122 0.97777778
0.010114943 -0.037088122 0.97777778
0.011800766 -0.037088122 0.97777778
0.01348659 -0.037088122 0.97777778
0.015172414 -0.037088122 0.97777778
0.064061299 -0.037088122 0.97777778
0.065747127 -0.037088122 0.97777778
0.067432947 -0.037088122 0.97777778
0.068593159 -0.036806084 0.97034222
0.070266157 -0.036806084 0.97034222
0.071939163 -0.036806084 0.97034222
0.073612168 -0.036806084 0.97034222
0.075285174 -0.036806084 0.97034222
0.076958172 -0.036806084 0.97034222
0.078631178 -0.036806084 0.97034222
0.080304183 -0.036806084 0.97034222
0.081977189 -0.036806084 0.97034222
0.083650187 -0.036806084 0.97034222
0.085323192 -0.036806084 0.97034222
0.086996198 -0.036806084 0.97034222
0.088669203 -0.036806084 0.97034222
0.090342209 -0.036806084 0.97034222
0.092015207 -0.036806084 0.97034222
0.093688212 -0.036806084 0.97034222
0.095361218 -0.036806084 0.97034222
0.097034223 -0.036806084 0.97034222
0.098707221 -0.036806084 0.97034222
0.10038023 -0.036806084 0.97034222
0.10205323 -0.036806084 0.97034222
0.10372624 -0.036806084 0.97034222
0.10539924 -0.036806084 0.97034222
0.10707224 -0.036806084 0.97034222
0.10833333 -0.036666665 0.96666664
0.11 -0.036666665 0.96666664
0.11166666 -0.036666665 0.96666664
0.11205993 -0.036254682 0.95580524
0.11370786 -0.036254682 0.95580524
0.1153558 -0.036254682 0.95580524
0.11700375 -0.036254682 0.95580524
0.11776952 -0.035985131 0.94869888
0.1194052 -0.035985131 0.94869888
0.12059259 -0.035851851 0.94518518
0.12222222 -0.035851851 0.94518518
0.12339483 -0.035719559 0.94169742
0.12501845 -0.035719559 0.94169742
0.12664206 -0.035719559 0.94169742
0.12779412 -0.035588235 0.93823528
0.12941177 -0.035588235 0.93823528
0.13102941 -0.035588235 0.93823528
0.13216117 -0.035457876 0.93479854
0.13377289 -0.035457876 0.93479854
0.1344 -0.0352 0.92799997
0.13600001 -0.0352 0.92799997
0.1361151 -0.034820143 0.91798562
0.13769785 -0.034820143 0.91798562
0.13878137 -0.034695342 0.91469532
0.13985714 -0.034571428 0.91142857
0.14142857 -0.034571428 0.91142857
0.14300001 -0.034571428 0.91142857
0.14457142 -0.034571428 0.91142857
0.14562277 -0.0344484 0.90818506
0.1456338 -0.034084506 0.89859158
0.14718311 -0.034084506 0.89859158
0.14925796 -0.034204949 0.90176678
0.15188612 -0.0344484 0.90818506
0.15345196 -0.0344484 0.90818506
0.15501779 -0.0344484 0.90818506
0.15658364 -0.0344484 0.90818506
0.15758865 -0.03432624 0.90496457
0.15914893 -0.03432624 0.90496457
0.16070922 -0.03432624 0.90496457
0.16169611 -0.034204949 0.90176678
0.16325088 -0.034204949 0.90176678
0.16480565 -0.034204949 0.90176678
0.16636042 -0.034204949 0.90176678
0.1679152 -0.034204949 0.90176678
0.16946997 -0.034204949 0.90176678
0.17102474 -0.034204949 0.90176678
0.17257951 -0.034204949 0.90176678
0.17413427 -0.034204949 0.90176678
0.17568904 -0.034204949 0.90176678
0.17724381 -0.034204949 0.90176678
0.17879859 -0.034204949 0.90176678
0.17971832 -0.034084506 0.89859158
0.18190813 -0.034204949 0.90176678
0.18281691 -0.034084506 0.89859158
0.1843662 -0.034084506 0.89859158
0.18657243 -0.034204949 0.90176678
0.1881272 -0.034204949 0.90176678
0.18901408 -0.034084506 0.89859158
0.19123675 -0.034204949 0.90176678
0.19279152 -0.034204949 0.90176678
0.19434629 -0.034204949 0.90176678
0.19590107 -0.034204949 0.90176678
0.19745582 -0.034204949 0.90176678
0.1990106 -0.034204949 0.90176678
0.20056537 -0.034204949 0.90176678
0.20212014 -0.034204949 0.90176678
-0.14827839 -0.033846155 0.93479854
-0.14666666 -0.033846155 0.93479854
-0.14505495 -0.033846155 0.93479854
-0.14344323 -0.033846155 0.93479854
-0.1418315 -0.033846155 0.93479854
-0.1392 -0.033599999 0.92799997
-0.1376 -0.033599999 0.92799997
-0.13600001 -0.033599999 0.92799997
-0.13391304 -0.03347826 0.92463768
-0.13231884 -0.03347826 0.92463768
-0.13072464 -0.03347826 0.92463768
-0.12866426 -0.0333574 0.92129964
-0.12707581 -0.0333574 0.92129964
-0.12548736 -0.0333574 0.92129964
-0.12345324 -0.033237409 0.91798562
-0.1218705 -0.033237409 0.91798562
-0.12028777 -0.033237409 0.91798562
-0.11827957 -0.033118278 0.91469532
-0.11670251 -0.033118278 0.91469532
-0.11512545 -0.033118278 0.91469532
-0.11354839 -0.033118278 0.91469532
-0.11197133 -0.033118278 0.91469532
-0.11039426 -0.033118278 0.91469532
-0.1088172 -0.033118278 0.91469532
-0.10724014 -0.033118278 0.91469532
-0.10566308 -0.033118278 0.91469532
-0.10408602 -0.033118278 0.91469532
-0.10250896 -0.033118278 0.91469532
-0.1009319 -0.033118278 0.91469532
-0.099354841 -0.033118278 0.91469532
-0.097777776 -0.033118278 0.91469532
-0.096200719 -0.033118278 0.91469532
-0.094623655 -0.033118278 0.91469532
-0.093046598 -0.033118278 0.91469532
-0.091469534 -0.033118278 0.91469532
-0.089892477 -0.033118278 0.91469532
-0.088315412 -0.033118278 0.91469532
-0.087050363 -0.033237409 0.91798562
-0.085467629 -0.033237409 0.91798562
-0.083584227 -0.033118278 0.91469532
-0.082302161 -0.033237409 0.91798562
-0.080719426 -0.033237409 0.91798562
-0.079136692 -0.033237409 0.91798562
-0.077553958 -0.033237409 0.91798562
-0.075160146 -0.032882564 0.90818506
-0.073594309 -0.032882564 0.90818506
-0.072805755 -0.033237409 0.91798562
-0.071480148 -0.0333574 0.92129964
-0.069640286 -0.033237409 0.91798562
-0.068057552 -0.033237409 0.91798562
-0.066714801 -0.0333574 0.92129964
-0.065126352 -0.0333574 0.92129964
-0.063537903 -0.0333574 0.92129964
-0.062173914 -0.03347826 0.92463768
-0.06057971 -0.03347826 0.92463768
-0.059633698 -0.033846155 0.93479854
-0.058450185 -0.034095939 0.94169742
-0.057037037 -0.034222223 0.94518518
-0.055407409 -0.034222223 0.94518518
-0.053777777 -0.034222223 0.94518518
-0.052342009 -0.034349442 0.94869888
-0.05051852 -0.034222223 0.94518518
-0.049253732 -0.03447761 0.9522388
-0.047611941 -0.03447761 0.9522388
-0.045970149 -0.03447761 0.9522388
-0.044328358 -0.03447761 0.9522388
-0.042686567 -0.03447761 0.9522388
-0.041044775 -0.03447761 0.9522388
-0.039402984 -0.03447761 0.9522388
-0.037761193 -0.03447761 0.9522388
-0.0365283 -0.034867924 0.96301889
-0.035 -0.035 0.96666664
-0.033587787 -0.035267174 0.97404581
-0.031908397 -0.035267174 0.97404581
-0.030344827 -0.035402298 0.97777778
-0.028549619 -0.035267174 0.97404581
-0.026870228 -0.035267174 0.97404581
-0.02519084 -0.035267174 0.97404581
-0.023601532 -0.035402298 0.97777778
-0.021749049 -0.035133079 0.97034222
-0.020152671 -0.035267174 0.97404581
-0.018473282 -0.035267174 0.97404581
-0.016730038 -0.035133079 0.97034222
-0.015057034 -0.035133079 0.97034222
-0.013435114 -0.035267174 0.97404581
-0.011755725 -0.035267174 0.97404581
-0.010076336 -0.035267174 0.97404581
-0.0067175571 -0.035267174 0.97404581
-0.0049999999 -0.035 0.96666664
-0.0033333334 -0.035 0.96666664
-0.0016666667 -0.035 0.96666664
0 -0.035402298 0.97777778
0.0016793893 -0.035267174 0.97404581
0.0033587785 -0.035267174 0.97404581
0.0050381678 -0.035267174 0.97404581
0.0066920151 -0.035133079 0.97034222
0.0084291184 -0.035402298 0.97777778
0.010114943 -0.035402298 0.97777778
0.011800766 -0.035402298 0.97777778
0.067432947 -0.035402298 0.97777778
0.068593159 -0.035133079 0.97034222
0.070266157 -0.035133079 0.97034222
0.071939163 -0.035133079 0.97034222
0.073612168 -0.035133079 0.97034222
0.075285174 -0.035133079 0.97034222
0.076666668 -0.035 0.96666664
0.078631178 -0.035133079 0.97034222
0.080304183 -0.035133079 0.97034222
0.081977189 -0.035133079 0.97034222
0.083650187 -0.035133079 0.97034222
0.085323192 -0.035133079 0.97034222
0.086666666 -0.035 0.96666664
0.088333331 -0.035 0.96666664
0.090000004 -0.035 0.96666664
0.091666669 -0.035 0.96666664
0.093688212 -0.035133079 0.97034222
0.095361218 -0.035133079 0.97034222
0.096666664 -0.035 0.96666664
0.098707221 -0.035133079 0.97034222
0.10038023 -0.035133079 0.97034222
0.10205323 -0.035133079 0.97034222
0.10372624 -0.035133079 0.97034222
0.10539924 -0.035133079 0.97034222
0.10707224 -0.035133079 0.97034222
0.10833333 -0.035 0.96666664
0.10958491 -0.034867924 0.96301889
0.11124528 -0.034867924 0.96301889
0.11290566 -0.034867924 0.96301889
0.11370786 -0.03460674 0.95580524
0.1153558 -0.03460674 0.95580524
0.11613383 -0.034349442 0.94869888
0.11776952 -0.034349442 0.94869888
0.11896297 -0.034222223 0.94518518
0.12059259 -0.034222223 0.94518518
0.12222222 -0.034222223 0.94518518
0.12339483 -0.034095939 0.94169742
0.12501845 -0.034095939 0.94169742
0.12664206 -0.034095939 0.94169742
0.12779412 -0.033970587 0.93823528
0.12941177 -0.033970587 0.93823528
0.13054945 -0.033846155 0.93479854
0.13216117 -0.033846155 0.93479854
0.13377289 -0.033846155 0.93479854
0.1344 -0.033599999 0.92799997
0.13501805 -0.0333574 0.92129964
0.1361151 -0.033237409 0.91798562
0.13671428 -0.033 0.91142857
0.13828571 -0.033 0.91142857
0.13985714 -0.033 0.91142857
0.14092527 -0.032882564 0.90818506
0.1424911 -0.032882564 0.90818506
0.14405695 -0.032882564 0.90818506
0.14562277 -0.032882564 0.90818506
0.14718862 -0.032882564 0.90818506
0.14718311 -0.03253521 0.89859158
0.14925796 -0.032650176 0.90176678
0.15188612 -0.032882564 0.90818506
0.1529078 -0.032765958 0.90496457
0.15446809 -0.032765958 0.90496457
0.15602838 -0.032765958 0.90496457
0.15758865 -0.032765958 0.90496457
0.15914893 -0.032765958 0.90496457
0.16014135 -0.032650176 0.90176678
0.16169611 -0.032650176 0.90176678
0.16325088 -0.032650176 0.90176678
0.16480565 -0.032650176 0.90176678
0.16636042 -0.032650176 0.90176678
0.1679152 -0.032650176 0.90176678
0.16946997 -0.032650176 0.90176678
0.17102474 -0.032650176 0.90176678
0.17197183 -0.03253521 0.89859158
0.17352113 -0.03253521 0.89859158
0.17507042 -0.03253521 0.89859158
0.17661972 -0.03253521 0.89859158
0.17816901 -0.03253521 0.89859158
0.17971832 -0.03253521 0.89859158
0.1812676 -0.03253521 0.89859158
0.18281691 -0.03253521 0.89859158
0.1843662 -0.03253521 0.89859158
0.1859155 -0.03253521 0.89859158
0.18746479 -0.03253521 0.89859158
0.18901408 -0.03253521 0.89859158
0.19123675 -0.032650176 0.90176678
0.19279152 -0.032650176 0.90176678
0.19434629 -0.032650176 0.90176678
0.19590107 -0.032650176 0.90176678
0.19745582 -0.032650176 0.90176678
0.1990106 -0.032650176 0.90176678
0.20056537 -0.032650176 0.90176678
0.20212014 -0.032650176 0.90176678
-0.14989011 -0.032234434 0.93479854
-0.14827839 -0.032234434 0.93479854
-0.14666666 -0.032234434 0.93479854
-0.14505495 -0.032234434 0.93479854
-0.14344323 -0.032234434 0.93479854
-0.1418315 -0.032234434 0.93479854
-0.1392 -0.032000002 0.92799997
-0.1376 -0.032000002 0.92799997
-0.13550724 -0.031884059 0.92463768
-0.13391304 -0.031884059 0.92463768
-0.13231884 -0.031884059 0.92463768
-0.13072464 -0.031884059 0.92463768
-0.12866426 -0.031768952 0.92129964
-0.12707581 -0.031768952 0.92129964
-0.12503597 -0.031654675 0.91798562
-0.12345324 -0.031654675 0.91798562
-0.1218705 -0.031654675 0.91798562
-0.12028777 -0.031654675 0.91798562
-0.11827957 -0.031541217 0.91469532
-0.11670251 -0.031541217 0.91469532
-0.11512545 -0.031541217 0.91469532
-0.11354839 -0.031541217 0.91469532
-0.11197133 -0.031541217 0.91469532
-0.11039426 -0.031541217 0.91469532
-0.1088172 -0.031541217 0.91469532
-0.10724014 -0.031541217 0.91469532
-0.10566308 -0.031541217 0.91469532
-0.10371429 -0.031428572 0.91142857
-0.10214286 -0.031428572 0.91142857
-0.1009319 -0.031541217 0.91469532
-0.098999999 -0.031428572 0.91142857
-0.097428568 -0.031428572 0.91142857
-0.096200719 -0.031541217 0.91469532
-0.094285712 -0.031428572 0.91142857
-0.092714287 -0.031428572 0.91142857
-0.091469534 -0.031541217 0.91469532
-0.089892477 -0.031541217 0.91469532
-0.088315412 -0.031541217 0.91469532
-0.086738348 -0.031541217 0.91469532
-0.085161291 -0.031541217 0.91469532
-0.083584227 -0.031541217 0.91469532
-0.08200717 -0.031541217 0.91469532
-0.080719426 -0.031654675 0.91798562
-0.079136692 -0.031654675 0.91798562
-0.077 -0.031428572 0.91142857
-0.075428568 -0.031428572 0.91142857
-0.073594309 -0.031316727 0.90818506
-0.072805755 -0.031654675 0.91798562
-0.071223021 -0.031654675 0.91798562
-0.069640286 -0.031654675 0.91798562
-0.068057552 -0.031654675 0.91798562
-0.066474818 -0.031654675 0.91798562
-0.064892083 -0.031654675 0.91798562
-0.063309349 -0.031654675 0.91798562
-0.061726619 -0.031654675 0.91798562
-0.060800001 -0.032000002 0.92799997
-0.0592 -0.032000002 0.92799997
-0.057599999 -0.032000002 0.92799997
-0.057037037 -0.032592591 0.94518518
-0.055407409 -0.032592591 0.94518518
-0.053777777 -0.032592591 0.94518518
-0.052148148 -0.032592591 0.94518518
-0.05051852 -0.032592591 0.94518518
-0.048888888 -0.032592591 0.94518518
-0.047434945 -0.032713756 0.94869888
-0.045970149 -0.032835823 0.9522388
-0.044328358 -0.032835823 0.9522388
-0.042686567 -0.032835823 0.9522388
-0.041044775 -0.032835823 0.9522388
-0.039402984 -0.032835823 0.9522388
-0.037761193 -0.032835823 0.9522388
-0.036119401 -0.032835823 0.9522388
-0.035 -0.033333335 0.96666664
-0.033333335 -0.033333335 0.96666664
-0.031787071 -0.033460077 0.97034222
-0.030114068 -0.033460077 0.97034222
-0.028549619 -0.033587787 0.97404581
-0.026870228 -0.033587787 0.97404581
-0.02519084 -0.033587787 0.97404581
-0.023511451 -0.033587787 0.97404581
-0.021749049 -0.033460077 0.97034222
-0.020076046 -0.033460077 0.97034222
-0.018403042 -0.033460077 0.97034222
-0.016730038 -0.033460077 0.97034222
-0.015057034 -0.033460077 0.97034222
-0.013435114 -0.033587787 0.97404581
-0.011755725 -0.033587787 0.97404581
-0.010076336 -0.033587787 0.97404581
-0.0049999999 -0.033333335 0.96666664
-0.0033333334 -0.033333335 0.96666664
-0.0016666667 -0.033333335 0.96666664
0 -0.033333335 0.96666664
0.0016793893 -0.033587787 0.97404581
0.0033460076 -0.033460077 0.97034222
0.0050190114 -0.033460077 0.97034222
0.0066920151 -0.033460077 0.97034222
0.0083650192 -0.033460077 0.97034222
0.010038023 -0.033460077 0.97034222
0.068593159 -0.033460077 0.97034222
0.070266157 -0.033460077 0.97034222
0.071939163 -0.033460077 0.97034222
0.073612168 -0.033460077 0.97034222
0.075000003 -0.033333335 0.96666664
0.076666668 -0.033333335 0.96666664
0.078333333 -0.033333335 0.96666664
0.080304183 -0.033460077 0.97034222
0.081977189 -0.033460077 0.97034222
0.083650187 -0.033460077 0.97034222
0.085000001 -0.033333335 0.96666664
0.086666666 -0.033333335 0.96666664
0.088333331 -0.033333335 0.96666664
0.090000004 -0.033333335 0.96666664
0.091666669 -0.033333335 0.96666664
0.09298113 -0.033207547 0.96301889
0.094999999 -0.033333335 0.96666664
0.096666664 -0.033333335 0.96666664
0.098333336 -0.033333335 0.96666664
0.1 -0.033333335 0.96666664
0.10166667 -0.033333335 0.96666664
0.10333333 -0.033333335 0.96666664
0.105 -0.033333335 0.96666664
0.10666667 -0.033333335 0.96666664
0.10833333 -0.033333335 0.96666664
0.11 -0.033333335 0.96666664
0.11124528 -0.033207547 0.96301889
0.11205993 -0.032958802 0.95580524
0.11370786 -0.032958802 0.95580524
0.1153558 -0.032958802 0.95580524
0.11613383 -0.032713756 0.94869888
0.11776952 -0.032713756 0.94869888
0.11896297 -0.032592591 0.94518518
0.12059259 -0.032592591 0.94518518
0.12222222 -0.032592591 0.94518518
0.12339483 -0.032472324 0.94169742
0.12501845 -0.032472324 0.94169742
0.12664206 -0.032472324 0.94169742
0.12779412 -0.032352943 0.93823528
0.12893774 -0.032234434 0.93479854
0.13054945 -0.032234434 0.93479854
0.13216117 -0.032234434 0.93479854
0.13377289 -0.032234434 0.93479854
0.1344 -0.032000002 0.92799997
0.13501805 -0.031768952 0.92129964
0.13514286 -0.031428572 0.91142857
0.13671428 -0.031428572 0.91142857
0.13828571 -0.031428572 0.91142857
0.13935943 -0.031316727 0.90818506
0.14092527 -0.031316727 0.90818506
0.1424911 -0.031316727 0.90818506
0.14405695 -0.031316727 0.90818506
0.14562277 -0.031316727 0.90818506
0.14718862 -0.031316727 0.90818506
0.14770319 -0.031095406 0.90176678
0.14925796 -0.031095406 0.90176678
0.15134752 -0.031205675 0.90496457
0.1529078 -0.031205675 0.90496457
0.15446809 -0.031205675 0.90496457
0.15602838 -0.031205675 0.90496457
0.1570318 -0.031095406 0.90176678
0.15858658 -0.031095406 0.90176678
0.16014135 -0.031095406 0.90176678
0.16169611 -0.031095406 0.90176678
0.16325088 -0.031095406 0.90176678
0.16480565 -0.031095406 0.90176678
0.16577464 -0.030985916 0.89859158
0.16732395 -0.030985916 0.89859158
0.16887324 -0.030985916 0.89859158
0.17042254 -0.030985916 0.89859158
0.17197183 -0.030985916 0.89859158
0.17352113 -0.030985916 0.89859158
0.17445613 -0.030877193 0.89543861
0.17661972 -0.030985916 0.89859158
0.17816901 -0.030985916 0.89859158
0.17971832 -0.030985916 0.89859158
0.1812676 -0.030985916 0.89859158
0.18281691 -0.030985916 0.89859158
0.1843662 -0.030985916 0.89859158
0.1859155 -0.030985916 0.89859158
0.18746479 -0.030985916 0.89859158
0.18901408 -0.030985916 0.89859158
0.19056338 -0.030985916 0.89859158
0.19211267 -0.030985916 0.89859158
0.19366197 -0.030985916 0.89859158
0.19590107 -0.031095406 0.90176678
0.19745582 -0.031095406 0.90176678
0.1990106 -0.031095406 0.90176678
0.20056537 -0.031095406 0.90176678
-0.14827839 -0.030622711 0.93479854
-0.14666666 -0.030622711 0.93479854
-0.14505495 -0.030622711 0.93479854
-0.14344323 -0.030622711 0.93479854
-0.1418315 -0.030622711 0.93479854
-0.13869566 -0.030289855 0.92463768
-0.13710146 -0.030289855 0.92463768
-0.13550724 -0.030289855 0.92463768
-0.13391304 -0.030289855 0.92463768
-0.13231884 -0.030289855 0.92463768
-0.12978417 -0.030071942 0.91798562
-0.12820144 -0.030071942 0.91798562
-0.1266187 -0.030071942 0.91798562
-0.12503597 -0.030071942 0.91798562
-0.12345324 -0.030071942 0.91798562
-0.12143369 -0.029964158 0.91469532
-0.12028777 -0.030071942 0.91798562
-0.11827957 -0.029964158 0.91469532
-0.11670251 -0.029964158 0.91469532
-0.11512545 -0.029964158 0.91469532
-0.11314286 -0.029857144 0.91142857
-0.11157143 -0.029857144 0.91142857
-0.11 -0.029857144 0.91142857
-0.10842858 -0.029857144 0.91142857
-0.10685714 -0.029857144 0.91142857
-0.10528571 -0.029857144 0.91142857
-0.10371429 -0.029857144 0.91142857
-0.10214286 -0.029857144 0.91142857
-0.10057143 -0.029857144 0.91142857
-0.098999999 -0.029857144 0.91142857
-0.097428568 -0.029857144 0.91142857
-0.095857143 -0.029857144 0.91142857
-0.094285712 -0.029857144 0.91142857
-0.092714287 -0.029857144 0.91142857
-0.091142856 -0.029857144 0.91142857
-0.089892477 -0.029964158 0.91469532
-0.088315412 -0.029964158 0.91469532
-0.086428568 -0.029857144 0.91142857
-0.084857143 -0.029857144 0.91142857
-0.083584227 -0.029964158 0.91469532
-0.08200717 -0.029964158 0.91469532
-0.080430105 -0.029964158 0.91469532
-0.078853048 -0.029964158 0.91469532
-0.077 -0.029857144 0.91142857
-0.075428568 -0.029857144 0.91142857
-0.073857144 -0.029857144 0.91142857
-0.072805755 -0.030071942 0.91798562
-0.071223021 -0.030071942 0.91798562
-0.069640286 -0.030071942 0.91798562
-0.068057552 -0.030071942 0.91798562
-0.066474818 -0.030071942 0.91798562
-0.064892083 -0.030071942 0.91798562
-0.063309349 -0.030071942 0.91798562
-0.061726619 -0.030071942 0.91798562
-0.060361009 -0.030180505 0.92129964
-0.0592 -0.030400001 0.92799997
-0.057599999 -0.030400001 0.92799997
-0.056826569 -0.030848708 0.94169742
-0.055202954 -0.030848708 0.94169742
-0.053777777 -0.030962963 0.94518518
-0.052148148 -0.030962963 0.94518518
-0.05051852 -0.030962963 0.94518518
-0.048888888 -0.030962963 0.94518518
-0.047434945 -0.031078067 0.94869888
-0.045799255 -0.031078067 0.94869888
-0.04416357 -0.031078067 0.94869888
-0.042686567 -0.031194029 0.9522388
-0.041044775 -0.031194029 0.9522388
-0.039402984 -0.031194029 0.9522388
-0.037761193 -0.031194029 0.9522388
-0.036390979 -0.031428572 0.95939851
-0.034867924 -0.03154717 0.96301889
-0.033333335 -0.031666666 0.96666664
-0.031787071 -0.031787071 0.97034222
-0.030114068 -0.031787071 0.97034222
-0.028549619 -0.031908397 0.97404581
-0.026870228 -0.031908397 0.97404581
-0.02519084 -0.031908397 0.97404581
-0.023511451 -0.031908397 0.97404581
-0.021749049 -0.031787071 0.97034222
-0.020076046 -0.031787071 0.97034222
-0.018403042 -0.031787071 0.97034222
-0.016730038 -0.031787071 0.97034222
-0.015057034 -0.031787071 0.97034222
-0.013435114 -0.031908397 0.97404581
-0.0066666668 -0.031666666 0.96666664
-0.0049999999 -0.031666666 0.96666664
-0.0033333334 -0.031666666 0.96666664
-0.0016666667 -0.031666666 0.96666664
0 -0.031666666 0.96666664
0.0016666667 -0.031666666 0.96666664
0.0033460076 -0.031787071 0.97034222
0.0050190114 -0.031787071 0.97034222
0.0066920151 -0.031787071 0.97034222
0.0083650192 -0.031787071 0.97034222
0.010038023 -0.031787071 0.97034222
0.011711027 -0.031787071 0.97034222
0.070266157 -0.031787071 0.97034222
0.071939163 -0.031787071 0.97034222
0.07333333 -0.031666666 0.96666664
0.075000003 -0.031666666 0.96666664
0.076666668 -0.031666666 0.96666664
0.078333333 -0.031666666 0.96666664
0.079999998 -0.031666666 0.96666664
0.081666663 -0.031666666 0.96666664
0.083333336 -0.031666666 0.96666664
0.085000001 -0.031666666 0.96666664
0.086339623 -0.03154717 0.96301889
0.088 -0.03154717 0.96301889
0.090000004 -0.031666666 0.96666664
0.091320753 -0.03154717 0.96301889
0.09298113 -0.03154717 0.96301889
0.094641507 -0.03154717 0.96301889
0.096666664 -0.031666666 0.96666664
0.098333336 -0.031666666 0.96666664
0.1 -0.031666666 0.96666664
0.10166667 -0.031666666 0.96666664
0.10333333 -0.031666666 0.96666664
0.105 -0.031666666 0.96666664
0.10666667 -0.031666666 0.96666664
0.10833333 -0.031666666 0.96666664
0.11 -0.031666666 0.96666664
0.11166666 -0.031666666 0.96666664
0.11205993 -0.03131086 0.95580524
0.11370786 -0.03131086 0.95580524
0.11492537 -0.031194029 0.9522388
0.11613383 -0.031078067 0.94869888
0.11776952 -0.031078067 0.94869888
0.11896297 -0.030962963 0.94518518
0.12059259 -0.030962963 0.94518518
0.12177122 -0.030848708 0.94169742
0.12339483 -0.030848708 0.94169742
0.12455882 -0.030735293 0.93823528
0.12617648 -0.030735293 0.93823528
0.12732601 -0.030622711 0.93479854
0.12893774 -0.030622711 0.93479854
0.13054945 -0.030622711 0.93479854
0.13216117 -0.030622711 0.93479854
0.13377289 -0.030622711 0.93479854
0.13247311 -0.029964158 0.91469532
0.13405018 -0.029964158 0.91469532
0.13514286 -0.029857144 0.91142857
0.13671428 -0.029857144 0.91142857
0.1377936 -0.029750889 0.90818506
0.13935943 -0.029750889 0.90818506
0.14092527 -0.029750889 0.90818506
0.14198582 -0.029645391 0.90496457
0.1435461 -0.029645391 0.90496457
0.14307693 -0.02923077 0.8923077
0.14461538 -0.02923077 0.8923077
0.14770319 -0.029540636 0.90176678
0.14925796 -0.029540636 0.90176678
0.15081272 -0.029540636 0.90176678
0.1529078 -0.029645391 0.90496457
0.15446809 -0.029645391 0.90496457
0.15547703 -0.029540636 0.90176678
0.1570318 -0.029540636 0.90176678
0.15858658 -0.029540636 0.90176678
0.16014135 -0.029540636 0.90176678
0.16112676 -0.02943662 0.89859158
0.16325088 -0.029540636 0.90176678
0.16422535 -0.02943662 0.89859158
0.16577464 -0.02943662 0.89859158
0.16732395 -0.02943662 0.89859158
0.16887324 -0.02943662 0.89859158
0.17042254 -0.02943662 0.89859158
0.17197183 -0.02943662 0.89859158
0.17291228 -0.029333333 0.89543861
0.17445613 -0.029333333 0.89543861
0.176 -0.029333333 0.89543861
0.17754386 -0.029333333 0.89543861
0.17908771 -0.029333333 0.89543861
0.18063158 -0.029333333 0.89543861
0.18281691 -0.02943662 0.89859158
0.18371929 -0.029333333 0.89543861
0.18526316 -0.029333333 0.89543861
0.18680702 -0.029333333 0.89543861
0.18901408 -0.02943662 0.89859158
0.19056338 -0.02943662 0.89859158
0.19211267 -0.02943662 0.89859158
0.19366197 -0.02943662 0.89859158
0.19521126 -0.02943662 0.89859158
0.19745582 -0.029540636 0.90176678
0.1990106 -0.029540636 0.90176678
0.20056537 -0.029540636 0.90176678
-0.15261993 -0.029225092 0.94169742
-0.15099631 -0.029225092 0.94169742
-0.1493727 -0.029225092 0.94169742
-0.14666666 -0.029010989 0.93479854
-0.14505495 -0.029010989 0.93479854
-0.14344323 -0.029010989 0.93479854
-0.14028986 -0.028695652 0.92463768
-0.13869566 -0.028695652 0.92463768
-0.13710146 -0.028695652 0.92463768
-0.13550724 -0.028695652 0.92463768
-0.13391304 -0.028695652 0.92463768
-0.13136691 -0.028489208 0.91798562
-0.12978417 -0.028489208 0.91798562
-0.12820144 -0.028489208 0.91798562
-0.1266187 -0.028489208 0.91798562
-0.12503597 -0.028489208 0.91798562
-0.12301075 -0.028387098 0.91469532
-0.12143369 -0.028387098 0.91469532
-0.11985663 -0.028387098 0.91469532
-0.11785714 -0.028285714 0.91142857
-0.11628571 -0.028285714 0.91142857
-0.11471429 -0.028285714 0.91142857
-0.11314286 -0.028285714 0.91142857
-0.11157143 -0.028285714 0.91142857
-0.11 -0.028285714 0.91142857
-0.10842858 -0.028285714 0.91142857
-0.10685714 -0.028285714 0.91142857
-0.10528571 -0.028285714 0.91142857
-0.10371429 -0.028285714 0.91142857
-0.10214286 -0.028285714 0.91142857
-0.10057143 -0.028285714 0.91142857
-0.098999999 -0.028285714 0.91142857
-0.097428568 -0.028285714 0.91142857
-0.095857143 -0.028285714 0.91142857
-0.094285712 -0.028285714 0.91142857
-0.092714287 -0.028285714 0.91142857
-0.091142856 -0.028285714 0.91142857
-0.089571431 -0.028285714 0.91142857
-0.088 -0.028285714 0.91142857
-0.086428568 -0.028285714 0.91142857
-0.084857143 -0.028285714 0.91142857
-0.083285712 -0.028285714 0.91142857
-0.08200717 -0.028387098 0.91469532
-0.080430105 -0.028387098 0.91469532
-0.078853048 -0.028387098 0.91469532
-0.077275984 -0.028387098 0.91469532
-0.075428568 -0.028285714 0.91142857
-0.073857144 -0.028285714 0.91142857
-0.071519434 -0.027985865 0.90176678
-0.070967741 -0.028387098 0.91469532
-0.069390684 -0.028387098 0.91469532
-0.068057552 -0.028489208 0.91798562
-0.066474818 -0.028489208 0.91798562
-0.064892083 -0.028489208 0.91798562
-0.063309349 -0.028489208 0.91798562
-0.061726619 -0.028489208 0.91798562
-0.060361009 -0.028592058 0.92129964
-0.058772564 -0.028592058 0.92129964
-0.058450185 -0.029225092 0.94169742
-0.056826569 -0.029225092 0.94169742
-0.055202954 -0.029225092 0.94169742
-0.053579334 -0.029225092 0.94169742
-0.052148148 -0.029333333 0.94518518
-0.05051852 -0.029333333 0.94518518
-0.048888888 -0.029333333 0.94518518
-0.047434945 -0.029442379 0.94869888
-0.045799255 -0.029442379 0.94869888
-0.04416357 -0.029442379 0.94869888
-0.042686567 -0.029552238 0.9522388
-0.040892195 -0.029442379 0.94869888
-0.039256506 -0.029442379 0.94869888
-0.038045112 -0.029774437 0.95939851
-0.036390979 -0.029774437 0.95939851
-0.034867924 -0.029886793 0.96301889
-0.033333335 -0.029999999 0.96666664
-0.031787071 -0.030114068 0.97034222
-0.030114068 -0.030114068 0.97034222
-0.028549619 -0.030229008 0.97404581
-0.026870228 -0.030229008 0.97404581
-0.025095057 -0.030114068 0.97034222
-0.023422053 -0.030114068 0.97034222
-0.021749049 -0.030114068 0.97034222
-0.020076046 -0.030114068 0.97034222
-0.018403042 -0.030114068 0.97034222
-0.016730038 -0.030114068 0.97034222
-0.015057034 -0.030114068 0.97034222
-0.013283019 -0.029886793 0.96301889
-0.0099622644 -0.029886793 0.96301889
-0.0049999999 -0.029999999 0.96666664
-0.0033333334 -0.029999999 0.96666664
-0.0016666667 -0.029999999 0.96666664
0 -0.029999999 0.96666664
0.0016666667 -0.029999999 0.96666664
0.0033333334 -0.029999999 0.96666664
0.0050190114 -0.030114068 0.97034222
0.0066920151 -0.030114068 0.97034222
0.0083650192 -0.030114068 0.97034222
0.010038023 -0.030114068 0.97034222
0.071666665 -0.029999999 0.96666664
0.07333333 -0.029999999 0.96666664
0.075000003 -0.029999999 0.96666664
0.076666668 -0.029999999 0.96666664
0.078333333 -0.029999999 0.96666664
0.079698116 -0.029886793 0.96301889
0.081666663 -0.029999999 0.96666664
0.083333336 -0.029999999 0.96666664
0.085323192 -0.030114068 0.97034222
0.086339623 -0.029886793 0.96301889
0.087669171 -0.029774437 0.95939851
0.089323305 -0.029774437 0.95939851
0.091320753 -0.029886793 0.96301889
0.09298113 -0.029886793 0.96301889
0.094641507 -0.029886793 0.96301889
0.096301883 -0.029886793 0.96301889
0.098333336 -0.029999999 0.96666664
0.1 -0.029999999 0.96666664
0.10128302 -0.029886793 0.96301889
0.1029434 -0.029886793 0.96301889
0.105 -0.029999999 0.96666664
0.10626415 -0.029886793 0.96301889
0.10792453 -0.029886793 0.96301889
0.11 -0.029999999 0.96666664
0.11124528 -0.029886793 0.96301889
0.11290566 -0.029886793 0.96301889
0.11370786 -0.029662922 0.95580524
0.11492537 -0.029552238 0.9522388
0.11613383 -0.029442379 0.94869888
0.11776952 -0.029442379 0.94869888
0.11808824 -0.029117648 0.93823528
0.11970589 -0.029117648 0.93823528
0.12177122 -0.029225092 0.94169742
0.12294117 -0.029117648 0.93823528
0.12455882 -0.029117648 0.93823528
0.12571429 -0.029010989 0.93479854
0.12732601 -0.029010989 0.93479854
0.12893774 -0.029010989 0.93479854
0.13054945 -0.029010989 0.93479854
0.1312 -0.0288 0.92799997
0.1328 -0.0288 0.92799997
0.13247311 -0.028387098 0.91469532
0.13405018 -0.028387098 0.91469532
0.13562724 -0.028387098 0.91469532
0.13574468 -0.028085107 0.90496457
0.13730496 -0.028085107 0.90496457
0.13935943 -0.028185053 0.90818506
0.14042553 -0.028085107 0.90496457
0.14198582 -0.028085107 0.90496457
0.1435461 -0.028085107 0.90496457
0.14307693 -0.027692307 0.8923077
0.14461538 -0.027692307 0.8923077
0.14718311 -0.027887324 0.89859158
0.14925796 -0.027985865 0.90176678
0.15081272 -0.027985865 0.90176678
0.15236749 -0.027985865 0.90176678
0.15392226 -0.027985865 0.90176678
0.15547703 -0.027985865 0.90176678
0.1570318 -0.027985865 0.90176678
0.15858658 -0.027985865 0.90176678
0.15957746 -0.027887324 0.89859158
0.16112676 -0.027887324 0.89859158
0.16210526 -0.027789474 0.89543861
0.16422535 -0.027887324 0.89859158
0.16577464 -0.027887324 0.89859158
0.16732395 -0.027887324 0.89859158
0.16828071 -0.027789474 0.89543861
0.17042254 -0.027887324 0.89859158
0.17136842 -0.027789474 0.89543861
0.17291228 -0.027789474 0.89543861
0.17445613 -0.027789474 0.89543861
0.176 -0.027789474 0.89543861
0.17754386 -0.027789474 0.89543861
0.17908771 -0.027789474 0.89543861
0.18063158 -0.027789474 0.89543861
0.18217544 -0.027789474 0.89543861
0.18371929 -0.027789474 0.89543861
0.18526316 -0.027789474 0.89543861
0.18680702 -0.027789474 0.89543861
0.18835087 -0.027789474 0.89543861
0.19056338 -0.027887324 0.89859158
0.19211267 -0.027887324 0.89859158
0.19366197 -0.027887324 0.89859158
0.19521126 -0.027887324 0.89859158
0.19676057 -0.027887324 0.89859158
0.19761403 -0.027789474 0.89543861
-0.15261993 -0.027601477 0.94169742
-0.15099631 -0.027601477 0.94169742
-0.1493727 -0.027601477 0.94169742
-0.14774908 -0.027601477 0.94169742
-0.14452554 -0.02729927 0.93138689
-0.1429197 -0.02729927 0.93138689
-0.14131387 -0.02729927 0.93138689
-0.13869566 -0.02710145 0.92463768
-0.13710146 -0.02710145 0.92463768
-0.13550724 -0.02710145 0.92463768
-0.13391304 -0.02710145 0.92463768
-0.13136691 -0.026906475 0.91798562
-0.12978417 -0.026906475 0.91798562
-0.12820144 -0.026906475 0.91798562
-0.12616487 -0.026810035 0.91469532
-0.12458781 -0.026810035 0.91469532
-0.12301075 -0.026810035 0.91469532
-0.12143369 -0.026810035 0.91469532
-0.11942858 -0.026714286 0.91142857
-0.11785714 -0.026714286 0.91142857
-0.11628571 -0.026714286 0.91142857
-0.11471429 -0.026714286 0.91142857
-0.11314286 -0.026714286 0.91142857
-0.11157143 -0.026714286 0.91142857
-0.11 -0.026714286 0.91142857
-0.10842858 -0.026714286 0.91142857
-0.10685714 -0.026714286 0.91142857
-0.10528571 -0.026714286 0.91142857
-0.10371429 -0.026714286 0.91142857
-0.10214286 -0.026714286 0.91142857
-0.10057143 -0.026714286 0.91142857
-0.098999999 -0.026714286 0.91142857
-0.097428568 -0.026714286 0.91142857
-0.095516011 -0.026619216 0.90818506
-0.094285712 -0.026714286 0.91142857
-0.092714287 -0.026714286 0.91142857
-0.091142856 -0.026714286 0.91142857
-0.089571431 -0.026714286 0.91142857
-0.088 -0.026714286 0.91142857
-0.086428568 -0.026714286 0.91142857
-0.084857143 -0.026714286 0.91142857
-0.083285712 -0.026714286 0.91142857
-0.081714287 -0.026714286 0.91142857
-0.080142856 -0.026714286 0.91142857
-0.078571431 -0.026714286 0.91142857
-0.077275984 -0.026810035 0.91469532
-0.075698927 -0.026810035 0.91469532
-0.073594309 -0.026619216 0.90818506
-0.071519434 -0.026431095 0.90176678
-0.070967741 -0.026810035 0.91469532
-0.069390684 -0.026810035 0.91469532
-0.06781362 -0.026810035 0.91469532
-0.066236556 -0.026810035 0.91469532
-0.064659499 -0.026810035 0.91469532
-0.063309349 -0.026906475 0.91798562
-0.061726619 -0.026906475 0.91798562
-0.060361009 -0.027003611 0.92129964
-0.059633698 -0.027399268 0.93479854
-0.058021978 -0.027399268 0.93479854
-0.056826569 -0.027601477 0.94169742
-0.055202954 -0.027601477 0.94169742
-0.053579334 -0.027601477 0.94169742
-0.051955719 -0.027601477 0.94169742
-0.05051852 -0.027703704 0.94518518
-0.048888888 -0.027703704 0.94518518
-0.04725926 -0.027703704 0.94518518
-0.045799255 -0.027806692 0.94869888
-0.04416357 -0.027806692 0.94869888
-0.042527881 -0.027806692 0.94869888
-0.040892195 -0.027806692 0.94869888
-0.039256506 -0.027806692 0.94869888
-0.037761193 -0.027910449 0.9522388
-0.036390979 -0.028120302 0.95939851
-0.034867924 -0.028226415 0.96301889
-0.033333335 -0.028333334 0.96666664
-0.031787071 -0.028441064 0.97034222
-0.030114068 -0.028441064 0.97034222
-0.028549619 -0.028549619 0.97404581
-0.02676806 -0.028441064 0.97034222
-0.025095057 -0.028441064 0.97034222
-0.023422053 -0.028441064 0.97034222
-0.021749049 -0.028441064 0.97034222
-0.02 -0.028333334 0.96666664
-0.018333333 -0.028333334 0.96666664
-0.016666668 -0.028333334 0.96666664
-0.014943397 -0.028226415 0.96301889
-0.013283019 -0.028226415 0.96301889
-0.011622641 -0.028226415 0.96301889
-0.0099622644 -0.028226415 0.96301889
-0.0083018867 -0.028226415 0.96301889
-0.0066415095 -0.028226415 0.96301889
-0.0049999999 -0.028333334 0.96666664
-0.0033333334 -0.028333334 0.96666664
-0.0016666667 -0.028333334 0.96666664
0 -0.028333334 0.96666664
0.0016666667 -0.028333334 0.96666664
0.0033333334 -0.028333334 0.96666664
0.0050190114 -0.028441064 0.97034222
0.0066920151 -0.028441064 0.97034222
0.0083650192 -0.028441064 0.97034222
0.010038023 -0.028441064 0.97034222
0.07 -0.028333334 0.96666664
0.071666665 -0.028333334 0.96666664
0.07333333 -0.028333334 0.96666664
0.075000003 -0.028333334 0.96666664
0.076666668 -0.028333334 0.96666664
0.078037739 -0.028226415 0.96301889
0.079698116 -0.028226415 0.96301889
0.081358492 -0.028226415 0.96301889
0.083018869 -0.028226415 0.96301889
0.085323192 -0.028441064 0.97034222
0.086666666 -0.028333334 0.96666664
0.088333331 -0.028333334 0.96666664
0.089323305 -0.028120302 0.95939851
0.090977445 -0.028120302 0.95939851
0.09298113 -0.028226415 0.96301889
0.094641507 -0.028226415 0.96301889
0.095939852 -0.028120302 0.95939851
0.097593985 -0.028120302 0.95939851
0.099622644 -0.028226415 0.96301889
0.10128302 -0.028226415 0.96301889
0.1029434 -0.028226415 0.96301889
0.10460377 -0.028226415 0.96301889
0.10626415 -0.028226415 0.96301889
0.10792453 -0.028226415 0.96301889
0.10958491 -0.028226415 0.96301889
0.11124528 -0.028226415 0.96301889
0.11248121 -0.028120302 0.95939851
0.11370786 -0.028014982 0.95580524
0.11492537 -0.027910449 0.9522388
0.11613383 -0.027806692 0.94869888
0.11690037 -0.027601477 0.94169742
0.11808824 -0.0275 0.93823528
0.11970589 -0.0275 0.93823528
0.12132353 -0.0275 0.93823528
0.12294117 -0.0275 0.93823528
0.12455882 -0.0275 0.93823528
0.12571429 -0.027399268 0.93479854
0.12732601 -0.027399268 0.93479854
0.12893774 -0.027399268 0.93479854
0.130073 -0.02729927 0.93138689
0.1312 -0.0272 0.92799997
0.1328 -0.0272 0.92799997
0.1344 -0.0272 0.92799997
0.13405018 -0.026810035 0.91469532
0.13418439 -0.026524823 0.90496457
0.13574468 -0.026524823 0.90496457
0.13730496 -0.026524823 0.90496457
0.13886525 -0.026524823 0.90496457
0.14042553 -0.026524823 0.90496457
0.14198582 -0.026524823 0.90496457
0.1435461 -0.026524823 0.90496457
0.14307693 -0.026153846 0.8923077
0.14461538 -0.026153846 0.8923077
0.14718311 -0.026338028 0.89859158
0.14925796 -0.026431095 0.90176678
0.15081272 -0.026431095 0.90176678
0.15236749 -0.026431095 0.90176678
0.15392226 -0.026431095 0.90176678
0.15547703 -0.026431095 0.90176678
0.15647887 -0.026338028 0.89859158
0.15802817 -0.026338028 0.89859158
0.15957746 -0.026338028 0.89859158
0.16112676 -0.026338028 0.89859158
0.16210526 -0.026245615 0.89543861
0.16364913 -0.026245615 0.89543861
0.16577464 -0.026338028 0.89859158
0.16673684 -0.026245615 0.89543861
0.16828071 -0.026245615 0.89543861
0.16982456 -0.026245615 0.89543861
0.17136842 -0.026245615 0.89543861
0.17291228 -0.026245615 0.89543861
0.17384616 -0.026153846 0.8923077
0.17538461 -0.026153846 0.8923077
0.17692308 -0.026153846 0.8923077
0.17908771 -0.026245615 0.89543861
0.18063158 -0.026245615 0.89543861
0.18217544 -0.026245615 0.89543861
0.18371929 -0.026245615 0.89543861
0.18526316 -0.026245615 0.89543861
0.18680702 -0.026245615 0.89543861
0.18835087 -0.026245615 0.89543861
0.18989474 -0.026245615 0.89543861
0.1914386 -0.026245615 0.89543861
0.19366197 -0.026338028 0.89859158
0.19452631 -0.026245615 0.89543861
0.19607018 -0.026245615 0.89543861
0.19761403 -0.026245615 0.89543861
0.19915789 -0.026245615 0.89543861
-0.15644445 -0.026074074 0.94518518
-0.15481481 -0.026074074 0.94518518
-0.15261993 -0.025977859 0.94169742
-0.15099631 -0.025977859 0.94169742
-0.1493727 -0.025977859 0.94169742
-0.14774908 -0.025977859 0.94169742
-0.14452554 -0.025693431 0.93138689
-0.1429197 -0.025693431 0.93138689
-0.14131387 -0.025693431 0.93138689
-0.13869566 -0.025507247 0.92463768
-0.13710146 -0.025507247 0.92463768
-0.13501805 -0.025415162 0.92129964
-0.1334296 -0.025415162 0.92129964
-0.13184115 -0.025415162 0.92129964
-0.129319 -0.025232974 0.91469532
-0.12774193 -0.025232974 0.91469532
-0.12616487 -0.025232974 0.91469532
-0.12458781 -0.025232974 0.91469532
-0.12301075 -0.025232974 0.91469532
-0.12143369 -0.025232974 0.91469532
-0.11942858 -0.025142858 0.91142857
-0.11785714 -0.025142858 0.91142857
-0.11628571 -0.025142858 0.91142857
-0.11471429 -0.025142858 0.91142857
-0.11314286 -0.025142858 0.91142857
-0.11157143 -0.025142858 0.91142857
-0.11 -0.025142858 0.91142857
-0.1080427 -0.02505338 0.90818506
-0.10647687 -0.02505338 0.90818506
-0.10491103 -0.02505338 0.90818506
-0.10334519 -0.02505338 0.90818506
-0.10177936 -0.02505338 0.90818506
-0.10021352 -0.02505338 0.90818506
-0.098647684 -0.02505338 0.90818506
-0.097081847 -0.02505338 0.90818506
-0.095516011 -0.02505338 0.90818506
-0.093950175 -0.02505338 0.90818506
-0.092714287 -0.025142858 0.91142857
-0.090818502 -0.02505338 0.90818506
